  1.9999999E-04  2.5198000E-04  3.1748001E-04  3.9999999E-04  5.0397002E-04
  6.3496002E-04  7.9999998E-04  1.0079000E-03  1.2699000E-03  1.6000000E-03
  2.0159001E-03  2.5398000E-03  3.1999999E-03  4.0317001E-03  5.0797001E-03
  6.3999998E-03  8.0634998E-03  1.0159000E-02  1.2800000E-02  1.6127000E-02
  2.0319000E-02  2.5599999E-02  3.2253999E-02  4.0637001E-02  5.1199999E-02
  6.4507999E-02  8.1275001E-02  0.1024000      0.1290200      0.1625500    
  0.2048000      0.2580300      0.3251000      5.7451997E-04  7.2384003E-04
  9.1199001E-04  1.1490000E-03  1.4477000E-03  1.8240000E-03  2.2980999E-03
  2.8953999E-03  3.6479000E-03  4.5961002E-03  5.7907999E-03  7.2959000E-03
  1.1572000E-02  1.4770000E-02  1.8851001E-02  2.4060000E-02  3.0709000E-02
  3.9193999E-02  5.0025001E-02  6.3847996E-02  8.1491001E-02  0.1040100    
  0.1327500      0.1694300      0.2162500      0.2760100      0.3522800    
  0.4496200      0.5738700      0.7324400      0.9348400       1.193200    
   1.522900      2.0715001E-04  2.6099000E-04  3.2912000E-04  4.3555000E-04
  5.7638000E-04  7.6276000E-04  1.0094000E-03  1.3358000E-03  1.7677000E-03
  2.3393999E-03  3.0958001E-03  4.0969001E-03  5.4215998E-03  7.1748002E-03
  9.4948001E-03  1.2565000E-02  1.6628001E-02  2.2004999E-02  2.9120000E-02
  3.8536999E-02  5.0997999E-02  6.7488000E-02  8.9311004E-02  0.1181900    
  0.1564100      0.2069800      0.2739100      0.3624900      0.4797000    
  0.6348100      0.8400900       1.111700       1.471200      2.3559001E-04
  2.9682001E-04  3.7396999E-04  4.7118001E-04  5.9364998E-04  7.4794999E-04
  9.5894001E-04  1.2777000E-03  1.7025000E-03  2.2684999E-03  3.0227001E-03
  4.0274998E-03  5.3665000E-03  7.1506002E-03  9.5277997E-03  1.2695000E-02
  1.6915999E-02  2.2538999E-02  3.0032000E-02  4.0017001E-02  7.0018999E-02
  9.8384000E-02  0.1382400      0.1942400      0.2729300      0.3835000    
  0.5388500      0.7571400       1.063900       1.494800       2.100400    
   2.951300       4.146900      2.0715001E-04  2.6147999E-04  3.3067001E-04
  4.1710000E-04  5.2691001E-04  6.6640001E-04  8.4289000E-04  1.0674000E-03
  1.3513000E-03  1.7129000E-03  2.1670000E-03  2.7520999E-03  3.4989000E-03
  4.4777002E-03  5.7346998E-03  7.5388998E-03  9.9020004E-03  1.3161000E-02
  1.7371999E-02  2.3336999E-02  3.1058000E-02  4.1193999E-02  5.5153001E-02
  7.4854001E-02  9.9806003E-02  0.1346300      0.1813600      0.2428200    
  0.3295500      0.4412300      0.5988400      0.7709000      0.9938700    
  2.7143999E-04  3.4200001E-04  4.3089001E-04  5.4287998E-04  6.8399002E-04
  8.6177001E-04  1.0858000E-03  1.3680001E-03  1.7235000E-03  2.1714999E-03
  2.7360001E-03  3.4471001E-03  4.3430999E-03  5.4719001E-03  6.8942001E-03
  8.6861001E-03  1.0944000E-02  1.3788000E-02  1.7371999E-02  2.1888001E-02
  2.7577000E-02  3.4745000E-02  4.3775000E-02  5.5153999E-02  6.9489002E-02
  8.7550998E-02  0.1103100      0.1389800      0.1751000      0.2206100    
  0.2779600      0.3502000      0.4412300      2.0715001E-04  2.6099000E-04
  3.2883001E-04  4.1430001E-04  5.2197999E-04  6.5766001E-04  8.2860002E-04
  1.0440000E-03  1.3153000E-03  1.6572000E-03  2.0878999E-03  2.6306000E-03
  3.3144001E-03  4.1759000E-03  5.2613001E-03  6.6288002E-03  8.3517004E-03
  1.0523000E-02  1.3258000E-02  1.6703000E-02  2.1044999E-02  2.6515000E-02
  3.3406999E-02  4.2089999E-02  5.3029999E-02  6.6813998E-02  8.4179997E-02
  0.1060600      0.1336300      0.1683600      0.2121200      0.2672500    
  0.3367200    
