  0.17517E+02  0.35810E+02  0.74463E+02  0.14937E+03  0.30475E+03  0.61115E+03
  0.12258E+04  0.24581E+04  0.49286E+04  0.00000E+00  0.17472E-05  0.37358E-05
  0.60462E-05  0.88469E-05  0.12262E-04  0.11766E-04  0.12296E-04  0.11927E-04
  0.23217E-04  0.00000E+00  0.00000E+00  0.68390E-03  0.19548E-02  0.44493E-02
  0.94743E-02  0.21195E-01  0.45084E-01  0.97782E-01  0.20526E+00  0.76863E+00
  0.18615E+01  0.42375E+01  0.92847E+01  0.19775E+02  0.40412E+02  0.84043E+02
  0.16855E+03  0.34393E+03  0.68972E+03  0.13834E+04  0.27744E+04  0.55635E+04
  0.00000E+00  0.36168E-05  0.76194E-05  0.12122E-04  0.17398E-04  0.23601E-04
  0.23234E-04  0.24683E-04  0.19278E-04  0.31526E-04  0.00000E+00  0.00000E+00
  0.84526E-03  0.23979E-02  0.53757E-02  0.11273E-01  0.24918E-01  0.52444E-01
  0.11283E+00  0.23525E+00  0.87274E+00  0.21065E+01  0.47835E+01  0.10462E+02
  0.22252E+02  0.45427E+02  0.94411E+02  0.18924E+03  0.38603E+03  0.77395E+03
  0.15521E+04  0.31124E+04  0.62408E+04  0.00000E+00  0.73786E-05  0.15352E-04
  0.24093E-04  0.34015E-04  0.45290E-04  0.45288E-04  0.48491E-04  0.34554E-04
  0.47661E-04  0.98535E-04  0.00000E+00  0.88355E-03  0.27720E-02  0.60591E-02
  0.12435E-01  0.26894E-01  0.55605E-01  0.11808E+00  0.24305E+00  0.89935E+00
  0.21264E+01  0.48122E+01  0.10498E+02  0.22287E+02  0.45434E+02  0.94339E+02
  0.18896E+03  0.38527E+03  0.77215E+03  0.15481E+04  0.31040E+04  0.62234E+04
  0.00000E+00  0.22161E-04  0.45751E-04  0.71139E-04  0.99310E-04  0.13087E-03
  0.14300E-03  0.16497E-03  0.13972E-03  0.15680E-03  0.17499E-03  0.32284E-03
  0.00000E+00  0.26898E-02  0.61371E-02  0.12624E-01  0.27452E-01  0.56361E-01
  0.11944E+00  0.24436E+00  0.90037E+00  0.21084E+01  0.47644E+01  0.10379E+02
  0.22009E+02  0.44808E+02  0.92997E+02  0.18613E+03  0.37945E+03  0.76030E+03
  0.15242E+04  0.30560E+04  0.61275E+04  0.00000E+00  0.59567E-04  0.12206E-03
  0.18832E-03  0.26031E-03  0.33923E-03  0.38252E-03  0.44856E-03  0.43117E-03
  0.49511E-03  0.52125E-03  0.47160E-03  0.84576E-03  0.00000E+00  0.61777E-02
  0.12942E-01  0.28315E-01  0.57898E-01  0.12196E+00  0.24797E+00  0.90598E+00
  0.21014E+01  0.47351E+01  0.10289E+02  0.21776E+02  0.44247E+02  0.91752E+02
  0.18344E+03  0.37384E+03  0.74873E+03  0.15007E+04  0.30086E+04  0.60326E+04
  0.00000E+00  0.13998E-03  0.28527E-03  0.43714E-03  0.59917E-03  0.77358E-03
  0.88391E-03  0.10376E-02  0.10533E-02  0.12203E-02  0.12974E-02  0.10207E-02
  0.11487E-02  0.25391E-02  0.00000E+00  0.13447E-01  0.29771E-01  0.60477E-01
  0.12668E+00  0.25522E+00  0.91830E+00  0.21091E+01  0.47301E+01  0.10238E+02
  0.21601E+02  0.43771E+02  0.90634E+02  0.18094E+03  0.36848E+03  0.73755E+03
  0.14777E+04  0.29619E+04  0.59387E+04  0.00000E+00  0.40049E-03  0.81264E-03
  0.12397E-02  0.16899E-02  0.21676E-02  0.25479E-02  0.30283E-02  0.33182E-02
  0.39235E-02  0.43766E-02  0.40811E-02  0.37872E-02  0.33601E-02  0.00000E+00
  0.10197E-01  0.24607E-01  0.53130E-01  0.11649E+00  0.23884E+00  0.86782E+00
  0.20025E+01  0.45067E+01  0.97612E+01  0.20588E+02  0.41635E+02  0.86232E+02
  0.17192E+03  0.35025E+03  0.70089E+03  0.14043E+04  0.28157E+04  0.56480E+04
  0.00000E+00  0.11718E-02  0.23705E-02  0.36032E-02  0.48869E-02  0.62368E-02
  0.74407E-02  0.88744E-02  0.10061E-01  0.11911E-01  0.13334E-01  0.13704E-01
  0.14155E-01  0.13187E-01  0.12444E-01  0.00000E+00  0.19199E-01  0.37656E-01
  0.88021E-01  0.19272E+00  0.74233E+00  0.17658E+01  0.40441E+01  0.88313E+01
  0.18700E+02  0.37790E+02  0.78480E+02  0.15631E+03  0.31903E+03  0.63859E+03
  0.12804E+04  0.25697E+04  0.51602E+04  0.00000E+00  0.30891E-02  0.62320E-02
  0.94451E-02  0.12761E-01  0.16205E-01  0.19426E-01  0.23110E-01  0.26456E-01
  0.31082E-01  0.34192E-01  0.35724E-01  0.37829E-01  0.38302E-01  0.38983E-01
  0.40260E-01  0.00000E+00  0.46459E-01  0.72761E-01  0.14543E+00  0.58236E+00
  0.14558E+01  0.34489E+01  0.76597E+01  0.16360E+02  0.33072E+02  0.69038E+02
  0.13739E+03  0.28130E+03  0.56349E+03  0.11312E+04  0.22738E+04  0.45741E+04
  0.00000E+00  0.75599E-02  0.15219E-01  0.23002E-01  0.30983E-01  0.39208E-01
  0.47057E-01  0.55769E-01  0.63970E-01  0.74514E-01  0.80437E-01  0.83868E-01
  0.88752E-01  0.91649E-01  0.96332E-01  0.10333E+00  0.10566E+00  0.00000E+00
  0.12012E+00  0.15869E+00  0.45906E+00  0.11294E+01  0.27564E+01  0.62691E+01
  0.13584E+02  0.27519E+02  0.57960E+02  0.11529E+03  0.23732E+03  0.47611E+03
  0.95781E+03  0.19301E+04  0.38934E+04  0.00000E+00  0.16558E-01  0.33280E-01
  0.50203E-01  0.67455E-01  0.85108E-01  0.10205E+00  0.12044E+00  0.13787E+00
  0.15926E+00  0.16856E+00  0.17410E+00  0.18184E+00  0.18736E+00  0.19609E+00
  0.21007E+00  0.21886E+00  0.23269E+00  0.00000E+00  0.26994E+00  0.50376E+00
  0.10202E+01  0.23501E+01  0.53035E+01  0.11510E+02  0.23245E+02  0.49190E+02
  0.97606E+02  0.20165E+03  0.40475E+03  0.81541E+03  0.16465E+04  0.33294E+04
  0.00000E+00  0.35096E-01  0.70452E-01  0.10618E+00  0.14238E+00  0.17921E+00
  0.21467E+00  0.25245E+00  0.28838E+00  0.33086E+00  0.34385E+00  0.35088E+00
  0.36236E+00  0.37007E+00  0.38316E+00  0.40610E+00  0.42318E+00  0.45058E+00
  0.46938E+00  0.00000E+00  0.73013E+00  0.11467E+01  0.22343E+01  0.47163E+01
  0.99697E+01  0.19854E+02  0.41786E+02  0.82400E+02  0.17016E+03  0.34102E+03
  0.68690E+03  0.13882E+04  0.28116E+04  0.00000E+00  0.73201E-01  0.14688E+00
  0.22103E+00  0.29596E+00  0.37194E+00  0.44544E+00  0.52265E+00  0.59657E+00
  0.68107E+00  0.71387E+00  0.73201E+00  0.75561E+00  0.76893E+00  0.79455E+00
  0.83525E+00  0.87222E+00  0.93013E+00  0.98002E+00  0.10616E+01  0.14355E+01
  0.17896E+01  0.26675E+01  0.46784E+01  0.89202E+01  0.16980E+02  0.34363E+02
  0.66651E+02  0.13560E+03  0.26959E+03  0.54010E+03  0.10878E+04  0.21991E+04
  0.00000E+00  0.14599E+00  0.29274E+00  0.44013E+00  0.58869E+00  0.73885E+00
  0.88441E+00  0.10356E+01  0.11807E+01  0.13424E+01  0.14149E+01  0.14539E+01
  0.14940E+01  0.15173E+01  0.15543E+01  0.16146E+01  0.16705E+01  0.17616E+01
  0.18473E+01  0.19954E+01  0.25488E+01  0.30669E+01  0.40105E+01  0.60322E+01
  0.10127E+02  0.18006E+02  0.33806E+02  0.63597E+02  0.12451E+03  0.24269E+03
  0.47833E+03  0.95047E+03  0.19002E+04  0.00000E+00  0.33236E+00  0.66576E+00
  0.10005E+01  0.13372E+01  0.16767E+01  0.20067E+01  0.23467E+01  0.26734E+01
  0.30306E+01  0.30563E+01  0.30582E+01  0.30849E+01  0.30955E+01  0.31379E+01
  0.32228E+01  0.33009E+01  0.34444E+01  0.35952E+01  0.38413E+01  0.48466E+01
  0.56542E+01  0.69918E+01  0.95685E+01  0.14446E+02  0.23917E+02  0.41040E+02
  0.74127E+02  0.13700E+03  0.25874E+03  0.49584E+03  0.96075E+03  0.18775E+04
  0.00000E+00  0.65268E+00  0.13069E+01  0.19630E+01  0.26220E+01  0.32850E+01
  0.39304E+01  0.45909E+01  0.52254E+01  0.59091E+01  0.59412E+01  0.59287E+01
  0.59543E+01  0.59473E+01  0.59879E+01  0.60920E+01  0.61772E+01  0.63613E+01
  0.65531E+01  0.68935E+01  0.83570E+01  0.95463E+01  0.11449E+02  0.14955E+02
  0.21338E+02  0.33661E+02  0.54648E+02  0.95470E+02  0.16940E+03  0.31182E+03
  0.58411E+03  0.11088E+04  0.21266E+04  0.00000E+00  0.12042E+01  0.24106E+01
  0.36194E+01  0.48321E+01  0.60504E+01  0.72352E+01  0.84418E+01  0.95978E+01
  0.10831E+02  0.10862E+02  0.10807E+02  0.10808E+02  0.10741E+02  0.10740E+02
  0.10825E+02  0.10856E+02  0.11020E+02  0.11166E+02  0.11510E+02  0.13260E+02
  0.14650E+02  0.16928E+02  0.21188E+02  0.28897E+02  0.43717E+02  0.68208E+02
  0.11560E+03  0.19939E+03  0.35955E+03  0.66231E+03  0.12400E+04  0.23508E+04
  0.00000E+00  0.21616E+01  0.43260E+01  0.64934E+01  0.86659E+01  0.10846E+02
  0.12963E+02  0.15112E+02  0.17163E+02  0.19338E+02  0.19351E+02  0.19204E+02
  0.19139E+02  0.18936E+02  0.18821E+02  0.18822E+02  0.18689E+02  0.18734E+02
  0.18688E+02  0.18899E+02  0.20718E+02  0.22084E+02  0.24507E+02  0.29339E+02
  0.38209E+02  0.55314E+02  0.82890E+02  0.13585E+03  0.22768E+03  0.40153E+03
  0.72678E+03  0.13422E+04  0.25173E+04  0.00000E+00  0.38309E+01  0.76652E+01
  0.11503E+02  0.15347E+02  0.19201E+02  0.22940E+02  0.26723E+02  0.30325E+02
  0.34124E+02  0.34091E+02  0.33763E+02  0.33552E+02  0.33076E+02  0.32716E+02
  0.32509E+02  0.32018E+02  0.31756E+02  0.31263E+02  0.31094E+02  0.32614E+02
  0.33603E+02  0.35844E+02  0.41049E+02  0.51009E+02  0.70492E+02  0.10114E+03
  0.15959E+03  0.25891E+03  0.44486E+03  0.78881E+03  0.14337E+04  0.26563E+04
  0.00000E+00  0.67897E+01  0.13583E+02  0.20381E+02  0.27186E+02  0.34003E+02
  0.40613E+02  0.47287E+02  0.53626E+02  0.60287E+02  0.60154E+02  0.59483E+02
  0.58987E+02  0.57994E+02  0.57154E+02  0.56517E+02  0.55319E+02  0.54420E+02
  0.53024E+02  0.52045E+02  0.52643E+02  0.52688E+02  0.54262E+02  0.59631E+02
  0.70787E+02  0.93293E+02  0.12779E+03  0.19328E+03  0.30207E+03  0.50319E+03
  0.87016E+03  0.15507E+04  0.28296E+04  0.00000E+00  0.11886E+02  0.23776E+02
  0.35670E+02  0.47572E+02  0.59488E+02  0.71031E+02  0.82668E+02  0.93698E+02
  0.10526E+03  0.10492E+03  0.10361E+03  0.10257E+03  0.10060E+03  0.98843E+02
  0.97345E+02  0.94778E+02  0.92596E+02  0.89419E+02  0.86769E+02  0.85042E+02
  0.82895E+02  0.82638E+02  0.87382E+02  0.99311E+02  0.12491E+03  0.16319E+03
  0.23587E+03  0.35376E+03  0.56870E+03  0.95496E+03  0.16623E+04  0.29787E+04
  0.00000E+00  0.21066E+02  0.42136E+02  0.63208E+02  0.84289E+02  0.10539E+03
  0.12582E+03  0.14639E+03  0.16587E+03  0.18624E+03  0.18551E+03  0.18305E+03
  0.18100E+03  0.17728E+03  0.17384E+03  0.17074E+03  0.16566E+03  0.16110E+03
  0.15465E+03  0.14890E+03  0.14264E+03  0.13637E+03  0.13258E+03  0.13576E+03
  0.14842E+03  0.17862E+03  0.22257E+03  0.30679E+03  0.43969E+03  0.67867E+03
  0.11004E+04  0.18610E+04  0.32585E+04  0.00000E+00  0.36884E+02  0.73772E+02
  0.11066E+03  0.14755E+03  0.18446E+03  0.22018E+03  0.25612E+03  0.29011E+03
  0.32559E+03  0.32414E+03  0.31960E+03  0.31569E+03  0.30879E+03  0.30225E+03
  0.29616E+03  0.28646E+03  0.27743E+03  0.26490E+03  0.25327E+03  0.23782E+03
  0.22342E+03  0.21233E+03  0.21132E+03  0.22314E+03  0.25789E+03  0.30724E+03
  0.40395E+03  0.55238E+03  0.81582E+03  0.12718E+04  0.20802E+04  0.35442E+04
  0.00000E+00  0.64578E+02  0.12916E+03  0.19372E+03  0.25829E+03  0.32288E+03
  0.38536E+03  0.44818E+03  0.50753E+03  0.56941E+03  0.56662E+03  0.55836E+03
  0.55111E+03  0.53851E+03  0.52638E+03  0.51486E+03  0.49681E+03  0.47964E+03
  0.45609E+03  0.43372E+03  0.40096E+03  0.37146E+03  0.34660E+03  0.33687E+03
  0.34534E+03  0.38509E+03  0.44019E+03  0.55302E+03  0.72121E+03  0.10167E+04
  0.15176E+04  0.23889E+04  0.39408E+04  0.00000E+00  0.11308E+03  0.22616E+03
  0.33921E+03  0.45224E+03  0.56528E+03  0.67461E+03  0.78447E+03  0.88819E+03
  0.99623E+03  0.99102E+03  0.97614E+03  0.96291E+03  0.94017E+03  0.91804E+03
  0.89671E+03  0.86372E+03  0.83186E+03  0.78854E+03  0.74674E+03  0.68202E+03
  0.62496E+03  0.57465E+03  0.54787E+03  0.54794E+03  0.59252E+03  0.65282E+03
  0.78625E+03  0.97925E+03  0.13164E+04  0.18763E+04  0.28303E+04  0.44980E+04
  0.00000E+00  0.00000E+00  0.00000E+00  0.00000E+00  0.00000E+00  0.00000E+00
  0.00000E+00  0.00000E+00  0.00000E+00  0.00000E+00  0.00000E+00  0.00000E+00
  0.00000E+00  0.00000E+00  0.00000E+00  0.00000E+00  0.00000E+00  0.00000E+00
  0.00000E+00  0.00000E+00  0.00000E+00  0.00000E+00  0.00000E+00  0.00000E+00
  0.00000E+00  0.00000E+00  0.00000E+00  0.00000E+00  0.00000E+00  0.00000E+00
  0.00000E+00  0.00000E+00  0.00000E+00  0.00000E+00  0.26886E-09  0.95271E-09
  0.34251E-08  0.10893E-07  0.29527E-07  0.57685E-07  0.92621E-07  0.17016E-06
  0.37210E-06  0.10554E-05  0.27605E-04  0.10870E-03  0.26001E-03  0.55282E-03
  0.10906E-02  0.21312E-02  0.40583E-02  0.67975E-02  0.11737E-01  0.22282E-01
  0.38288E-01  0.64836E-01  0.10858E+00  0.17878E+00  0.29871E+00  0.48409E+00
  0.78463E+00  0.12720E+01  0.20621E+01  0.33199E+01  0.53271E+01  0.85484E+01
  0.00000E+00  0.97577E-09  0.20796E-08  0.66847E-08  0.22348E-07  0.62791E-07
  0.12200E-06  0.19328E-06  0.35250E-06  0.77164E-06  0.22058E-05  0.58564E-04
  0.22648E-03  0.53764E-03  0.11366E-02  0.22299E-02  0.43396E-02  0.82388E-02
  0.13761E-01  0.23683E-01  0.44901E-01  0.77036E-01  0.13029E+00  0.21798E+00
  0.35862E+00  0.59882E+00  0.96996E+00  0.15715E+01  0.25469E+01  0.41278E+01
  0.66442E+01  0.10660E+02  0.17103E+02  0.00000E+00  0.36529E-08  0.57262E-08
  0.98627E-08  0.29400E-07  0.90311E-07  0.17835E-06  0.28081E-06  0.51481E-06
  0.11519E-05  0.34023E-05  0.94297E-04  0.35677E-03  0.83997E-03  0.17620E-02
  0.34366E-02  0.66546E-02  0.12579E-01  0.20937E-01  0.35943E-01  0.67981E-01
  0.11641E+00  0.19659E+00  0.32849E+00  0.53988E+00  0.90079E+00  0.14581E+01
  0.23613E+01  0.38253E+01  0.61978E+01  0.99735E+01  0.15998E+02  0.25664E+02
  0.00000E+00  0.99230E-08  0.16247E-07  0.22072E-07  0.39158E-07  0.11545E-06
  0.23092E-06  0.36180E-06  0.66822E-06  0.15387E-05  0.47269E-05  0.13694E-03
  0.50526E-03  0.11772E-02  0.24477E-02  0.47402E-02  0.91205E-02  0.17149E-01
  0.28429E-01  0.48632E-01  0.91711E-01  0.15666E+00  0.26408E+00  0.44058E+00
  0.72319E+00  0.12054E+01  0.19497E+01  0.31554E+01  0.51091E+01  0.82745E+01
  0.13311E+02  0.21346E+02  0.34236E+02  0.00000E+00  0.27321E-07  0.50253E-07
  0.68236E-07  0.79630E-07  0.13170E-06  0.24787E-06  0.38124E-06  0.70908E-06
  0.17412E-05  0.59230E-05  0.18920E-03  0.67873E-03  0.15631E-02  0.32157E-02
  0.61732E-02  0.11791E-01  0.22036E-01  0.36330E-01  0.61881E-01  0.11633E+00
  0.19813E+00  0.33320E+00  0.55482E+00  0.90929E+00  0.15138E+01  0.24460E+01
  0.39553E+01  0.64003E+01  0.10360E+02  0.16660E+02  0.26707E+02  0.42825E+02
  0.00000E+00  0.28888E-06  0.63931E-06  0.10850E-05  0.16411E-05  0.23292E-05
  0.33900E-05  0.46314E-05  0.67075E-05  0.93362E-05  0.93613E-05  0.23921E-03
  0.85603E-03  0.19717E-02  0.40336E-02  0.76892E-02  0.14597E-01  0.27116E-01
  0.44450E-01  0.75379E-01  0.14116E+00  0.23961E+00  0.40192E+00  0.66774E+00
  0.10923E+01  0.18159E+01  0.29305E+01  0.47341E+01  0.76546E+01  0.12383E+02
  0.19903E+02  0.31892E+02  0.51122E+02  0.00000E+00  0.79751E-06  0.17421E-05
  0.29108E-05  0.43676E-05  0.62023E-05  0.88992E-05  0.11877E-04  0.17011E-04
  0.24331E-04  0.29022E-04  0.31805E-03  0.11111E-02  0.25328E-02  0.51103E-02
  0.96155E-02  0.18047E-01  0.33175E-01  0.53888E-01  0.90680E-01  0.16877E+00
  0.28489E+00  0.47581E+00  0.78760E+00  0.12845E+01  0.21305E+01  0.34313E+01
  0.55345E+01  0.89375E+01  0.14445E+02  0.23197E+02  0.37147E+02  0.59514E+02
  0.00000E+00  0.27894E-05  0.60261E-05  0.99339E-05  0.14759E-04  0.20887E-04
  0.29428E-04  0.38284E-04  0.53850E-04  0.77641E-04  0.10431E-03  0.38339E-03
  0.13730E-02  0.31567E-02  0.63262E-02  0.11781E-01  0.21889E-01  0.39831E-01
  0.64028E-01  0.10686E+00  0.19749E+00  0.33122E+00  0.55041E+00  0.90707E+00
  0.14739E+01  0.24378E+01  0.39165E+01  0.63045E+01  0.10165E+02  0.16409E+02
  0.26324E+02  0.42119E+02  0.67435E+02  0.00000E+00  0.60151E-05  0.12778E-04
  0.20651E-04  0.30023E-04  0.41497E-04  0.56884E-04  0.71765E-04  0.97904E-04
  0.13735E-03  0.18217E-03  0.52162E-03  0.18271E-02  0.41430E-02  0.81450E-02
  0.14881E-01  0.27175E-01  0.48658E-01  0.77099E-01  0.12711E+00  0.23248E+00
  0.38632E+00  0.63726E+00  0.10436E+01  0.16869E+01  0.27786E+01  0.44487E+01
  0.71414E+01  0.11489E+02  0.18513E+02  0.29657E+02  0.47397E+02  0.75816E+02
  0.00000E+00  0.00000E+00  0.00000E+00  0.00000E+00  0.00000E+00  0.00000E+00
  0.00000E+00  0.00000E+00  0.20189E-03  0.26952E-03  0.34534E-03  0.67058E-03
  0.23273E-02  0.51943E-02  0.99102E-02  0.17610E-01  0.31374E-01  0.54621E-01
  0.86316E-01  0.14142E+00  0.24583E+00  0.40390E+00  0.66020E+00  0.10726E+01
  0.17224E+01  0.28222E+01  0.44983E+01  0.71951E+01  0.11542E+02  0.18556E+02
  0.29670E+02  0.47345E+02  0.75642E+02  0.00000E+00  0.00000E+00  0.00000E+00
  0.00000E+00  0.00000E+00  0.00000E+00  0.00000E+00  0.00000E+00  0.00000E+00
  0.62865E-03  0.79856E-03  0.65796E-03  0.26389E-02  0.61431E-02  0.11700E-01
  0.20453E-01  0.35817E-01  0.61135E-01  0.95697E-01  0.15509E+00  0.26024E+00
  0.42215E+00  0.68287E+00  0.10991E+01  0.17507E+01  0.28509E+01  0.45186E+01
  0.71950E+01  0.11500E+02  0.18436E+02  0.29407E+02  0.46834E+02  0.74707E+02
  0.00000E+00  0.12062E-03  0.24821E-03  0.38596E-03  0.53755E-03  0.70829E-03
  0.91158E-03  0.97305E-03  0.00000E+00  0.00000E+00  0.15485E-02  0.71803E-03
  0.30093E-02  0.74359E-02  0.14204E-01  0.24506E-01  0.42105E-01  0.70269E-01
  0.10839E+00  0.17287E+00  0.28195E+00  0.45016E+00  0.71861E+00  0.11429E+01
  0.18018E+01  0.29100E+01  0.45789E+01  0.72480E+01  0.11530E+02  0.18412E+02
  0.29276E+02  0.46502E+02  0.74024E+02  0.00000E+00  0.33458E-03  0.68382E-03
  0.10550E-02  0.14553E-02  0.18961E-02  0.24039E-02  0.26462E-02  0.29096E-02
  0.31367E-02  0.00000E+00  0.12116E-02  0.29872E-02  0.83741E-02  0.16682E-01
  0.28921E-01  0.49369E-01  0.81287E-01  0.12318E+00  0.19296E+00  0.30759E+00
  0.48258E+00  0.75902E+00  0.11905E+01  0.18537E+01  0.29647E+01  0.46228E+01
  0.72633E+01  0.11484E+02  0.18251E+02  0.28901E+02  0.45752E+02  0.72632E+02
  0.00000E+00  0.77106E-03  0.15686E-02  0.24035E-02  0.32888E-02  0.42445E-02
  0.53150E-02  0.57479E-02  0.62213E-02  0.67542E-02  0.72963E-02  0.00000E+00
  0.35381E-02  0.94510E-02  0.19864E-01  0.34984E-01  0.59711E-01  0.96728E-01
  0.14384E+00  0.22184E+00  0.34483E+00  0.53020E+00  0.81931E+00  0.12636E+01
  0.19379E+01  0.30614E+01  0.47194E+01  0.73451E+01  0.11524E+02  0.18197E+02
  0.28663E+02  0.45174E+02  0.71458E+02  0.00000E+00  0.16847E-02  0.34120E-02
  0.52011E-02  0.70723E-02  0.90566E-02  0.11229E-01  0.11945E-01  0.12691E-01
  0.13578E-01  0.14534E-01  0.77024E-02  0.00000E+00  0.11030E-01  0.24019E-01
  0.43199E-01  0.74163E-01  0.11919E+00  0.17360E+00  0.26235E+00  0.39855E+00
  0.59910E+00  0.90714E+00  0.13717E+01  0.20658E+01  0.32144E+01  0.48862E+01
  0.75148E+01  0.11674E+02  0.18285E+02  0.28602E+02  0.44819E+02  0.70566E+02
  0.00000E+00  0.38269E-02  0.77239E-02  0.11729E-01  0.15871E-01  0.20207E-01
  0.24862E-01  0.26031E-01  0.27283E-01  0.28746E-01  0.30347E-01  0.19323E-01
  0.13984E-01  0.14521E-01  0.27031E-01  0.50629E-01  0.89893E-01  0.14520E+00
  0.20899E+00  0.31062E+00  0.46356E+00  0.68179E+00  0.10114E+01  0.14973E+01
  0.22097E+01  0.33806E+01  0.50539E+01  0.76626E+01  0.11761E+02  0.18237E+02
  0.28281E+02  0.43993E+02  0.68853E+02  0.00000E+00  0.82496E-02  0.16610E-01
  0.25146E-01  0.33898E-01  0.42962E-01  0.52542E-01  0.54481E-01  0.56469E-01
  0.58744E-01  0.61292E-01  0.43075E-01  0.33348E-01  0.24398E-01  0.34787E-01
  0.60751E-01  0.11044E+00  0.18101E+00  0.25794E+00  0.37882E+00  0.55600E+00
  0.79987E+00  0.11611E+01  0.16796E+01  0.24227E+01  0.36346E+01  0.53283E+01
  0.79414E+01  0.12010E+02  0.18393E+02  0.28213E+02  0.43482E+02  0.67535E+02
  0.00000E+00  0.18092E-01  0.36384E-01  0.54943E-01  0.73875E-01  0.93292E-01
  0.11357E+00  0.11661E+00  0.12000E+00  0.12355E+00  0.12748E+00  0.97317E-01
  0.81390E-01  0.57205E-01  0.51802E-01  0.76237E-01  0.13932E+00  0.21966E+00
  0.31164E+00  0.45782E+00  0.66596E+00  0.94105E+00  0.13401E+01  0.18952E+01
  0.26693E+01  0.39235E+01  0.56265E+01  0.82228E+01  0.12224E+02  0.18444E+02
  0.27919E+02  0.42536E+02  0.65435E+02  0.00000E+00  0.38328E-01  0.76975E-01
  0.11604E+00  0.15566E+00  0.19608E+00  0.23782E+00  0.24261E+00  0.24733E+00
  0.25294E+00  0.25908E+00  0.20758E+00  0.18058E+00  0.13455E+00  0.10519E+00
  0.11838E+00  0.17046E+00  0.00000E+00  0.38627E+00  0.56644E+00  0.81723E+00
  0.11368E+01  0.15902E+01  0.21985E+01  0.30202E+01  0.43432E+01  0.60782E+01
  0.86870E+01  0.12658E+02  0.18766E+02  0.27954E+02  0.41993E+02  0.63832E+02
  0.00000E+00  0.14538E+00  0.29126E+00  0.43813E+00  0.58604E+00  0.73557E+00
  0.88807E+00  0.90775E+00  0.92589E+00  0.94220E+00  0.95706E+00  0.80533E+00
  0.72312E+00  0.58583E+00  0.46043E+00  0.37870E+00  0.36920E+00  0.51962E+00
  0.69392E+00  0.95829E+00  0.13562E+01  0.18273E+01  0.24691E+01  0.32665E+01
  0.42672E+01  0.58602E+01  0.77782E+01  0.10573E+02  0.14703E+02  0.20890E+02
  0.29905E+02  0.43339E+02  0.63853E+02  0.00000E+00  0.35391E+00  0.70858E+00
  0.10650E+01  0.14232E+01  0.17837E+01  0.21496E+01  0.21620E+01  0.21771E+01
  0.21949E+01  0.22122E+01  0.19108E+01  0.17428E+01  0.14777E+01  0.12182E+01
  0.99615E+00  0.83226E+00  0.84254E+00  0.10906E+01  0.13908E+01  0.18637E+01
  0.24440E+01  0.32332E+01  0.41759E+01  0.53026E+01  0.70964E+01  0.91149E+01
  0.11995E+02  0.16170E+02  0.22308E+02  0.31028E+02  0.43768E+02  0.62942E+02
  0.00000E+00  0.80746E+00  0.16159E+01  0.24271E+01  0.32411E+01  0.40583E+01
  0.48845E+01  0.49043E+01  0.49285E+01  0.49563E+01  0.49814E+01  0.43880E+01
  0.40453E+01  0.35286E+01  0.30148E+01  0.25315E+01  0.20550E+01  0.18120E+01
  0.18589E+01  0.23504E+01  0.28549E+01  0.35430E+01  0.45079E+01  0.56427E+01
  0.69467E+01  0.90241E+01  0.11208E+02  0.14258E+02  0.18586E+02  0.24820E+02
  0.33428E+02  0.45726E+02  0.63922E+02  0.00000E+00  0.17728E+01  0.35465E+01
  0.53246E+01  0.71064E+01  0.88920E+01  0.10692E+02  0.10723E+02  0.10760E+02
  0.10801E+02  0.10833E+02  0.96582E+01  0.89501E+01  0.79288E+01  0.69116E+01
  0.59254E+01  0.48511E+01  0.40948E+01  0.39080E+01  0.39721E+01  0.50176E+01
  0.58079E+01  0.69993E+01  0.84191E+01  0.10013E+02  0.12550E+02  0.15064E+02
  0.18501E+02  0.23270E+02  0.29990E+02  0.39003E+02  0.51578E+02  0.69829E+02
  0.00000E+00  0.37820E+01  0.75642E+01  0.11353E+02  0.15146E+02  0.18942E+02
  0.22763E+02  0.22808E+02  0.22862E+02  0.22919E+02  0.22953E+02  0.20622E+02
  0.19159E+02  0.17127E+02  0.15103E+02  0.13120E+02  0.10870E+02  0.90777E+01
  0.83789E+01  0.79818E+01  0.82833E+01  0.10450E+02  0.11921E+02  0.13757E+02
  0.15807E+02  0.19070E+02  0.22152E+02  0.26278E+02  0.31883E+02  0.39610E+02
  0.49678E+02  0.63390E+02  0.82894E+02  0.00000E+00  0.77432E+01  0.15484E+02
  0.23234E+02  0.30987E+02  0.38740E+02  0.46530E+02  0.46594E+02  0.46668E+02
  0.46741E+02  0.46757E+02  0.42125E+02  0.39115E+02  0.35056E+02  0.31013E+02
  0.27038E+02  0.22488E+02  0.18705E+02  0.17016E+02  0.15753E+02  0.15698E+02
  0.19617E+02  0.21617E+02  0.24221E+02  0.27092E+02  0.31690E+02  0.35784E+02
  0.41159E+02  0.48313E+02  0.57967E+02  0.70170E+02  0.86391E+02  0.10900E+03
  0.00000E+00  0.16113E+02  0.32216E+02  0.48334E+02  0.64450E+02  0.80556E+02
  0.96723E+02  0.96813E+02  0.96914E+02  0.97000E+02  0.96962E+02  0.87779E+02
  0.81666E+02  0.73591E+02  0.65544E+02  0.57600E+02  0.48387E+02  0.40362E+02
  0.36362E+02  0.32822E+02  0.31367E+02  0.32101E+02  0.40600E+02  0.43998E+02
  0.47878E+02  0.54188E+02  0.59627E+02  0.66657E+02  0.75855E+02  0.88036E+02
  0.10302E+03  0.12249E+03  0.14913E+03  0.00000E+00  0.32348E+02  0.64671E+02
  0.97014E+02  0.12934E+03  0.16163E+03  0.19402E+03  0.19414E+03  0.19427E+03
  0.19435E+03  0.19416E+03  0.17595E+03  0.16359E+03  0.14751E+03  0.13149E+03
  0.11565E+03  0.97271E+02  0.81061E+02  0.72644E+02  0.64898E+02  0.61003E+02
  0.61231E+02  0.77387E+02  0.82442E+02  0.88237E+02  0.97866E+02  0.10564E+03
  0.11551E+03  0.12822E+03  0.14473E+03  0.16438E+03  0.18932E+03  0.22284E+03
  0.00000E+00  0.66019E+02  0.13198E+03  0.19797E+03  0.26391E+03  0.32976E+03
  0.39577E+03  0.39593E+03  0.39608E+03  0.39611E+03  0.39557E+03  0.35952E+03
  0.33471E+03  0.30280E+03  0.27098E+03  0.23946E+03  0.20269E+03  0.16957E+03
  0.15155E+03  0.13407E+03  0.12357E+03  0.12113E+03  0.12392E+03  0.15782E+03
  0.16593E+03  0.17994E+03  0.19092E+03  0.20473E+03  0.22225E+03  0.24471E+03
  0.27066E+03  0.30290E+03  0.34559E+03  0.00000E+00  0.13244E+03  0.26474E+03
  0.39709E+03  0.52933E+03  0.66134E+03  0.79364E+03  0.79383E+03  0.79397E+03
  0.79383E+03  0.79253E+03  0.72121E+03  0.67161E+03  0.60833E+03  0.54519E+03
  0.48261E+03  0.40950E+03  0.34303E+03  0.30603E+03  0.26934E+03  0.24579E+03
  0.23790E+03  0.23964E+03  0.30504E+03  0.31713E+03  0.33897E+03  0.35523E+03
  0.37544E+03  0.40074E+03  0.43269E+03  0.46829E+03  0.51145E+03  0.56787E+03
  0.00000E+00  0.26567E+03  0.53106E+03  0.79651E+03  0.10617E+04  0.13264E+04
  0.15916E+04  0.15918E+04  0.15919E+04  0.15913E+04  0.15884E+04  0.14474E+04
  0.13485E+04  0.12232E+04  0.10981E+04  0.97393E+03  0.82869E+03  0.69556E+03
  0.62002E+03  0.54374E+03  0.49228E+03  0.47152E+03  0.46877E+03  0.48082E+03
  0.61333E+03  0.64757E+03  0.67203E+03  0.70215E+03  0.73943E+03  0.78589E+03
  0.83565E+03  0.89447E+03  0.97048E+03  0.00000E+00  0.53280E+03  0.10650E+04
  0.15973E+04  0.21291E+04  0.26598E+04  0.31914E+04  0.31915E+04  0.31913E+04
  0.31899E+04  0.31836E+04  0.29048E+04  0.27084E+04  0.24603E+04  0.22126E+04
  0.19667E+04  0.16784E+04  0.14122E+04  0.12587E+04  0.11012E+04  0.99074E+03
  0.94075E+03  0.92484E+03  0.93840E+03  0.11969E+04  0.12505E+04  0.12877E+04
  0.13333E+04  0.13892E+04  0.14581E+04  0.15289E+04  0.16103E+04  0.17144E+04
  0.00000E+00  0.10683E+04  0.21354E+04  0.32026E+04  0.42687E+04  0.53326E+04
  0.63981E+04  0.63981E+04  0.63973E+04  0.63938E+04  0.63808E+04  0.58298E+04
  0.54401E+04  0.49494E+04  0.44594E+04  0.39725E+04  0.34008E+04  0.28693E+04
  0.25586E+04  0.22352E+04  0.20010E+04  0.18862E+04  0.18366E+04  0.18463E+04
  0.18815E+04  0.24351E+04  0.24922E+04  0.25620E+04  0.26471E+04  0.27510E+04
  0.28533E+04  0.29674E+04  0.31120E+04  0.00000E+00  0.00000E+00  0.00000E+00
  0.00000E+00  0.00000E+00  0.00000E+00  0.00000E+00  0.00000E+00  0.00000E+00
  0.00000E+00  0.00000E+00  0.00000E+00  0.00000E+00  0.00000E+00  0.00000E+00
  0.00000E+00  0.00000E+00  0.00000E+00  0.00000E+00  0.00000E+00  0.00000E+00
  0.00000E+00  0.00000E+00  0.00000E+00  0.00000E+00  0.00000E+00  0.00000E+00
  0.00000E+00  0.00000E+00  0.00000E+00  0.00000E+00  0.00000E+00  0.00000E+00
  0.00000E+00  0.12888E-09  0.35913E-09  0.14303E-08  0.45671E-08  0.13882E-07
  0.15349E-06  0.46413E-06  0.17472E-05  0.36168E-05  0.73786E-05  0.22161E-04
  0.59567E-04  0.13998E-03  0.40049E-03  0.11718E-02  0.30891E-02  0.75599E-02
  0.16558E-01  0.35096E-01  0.73201E-01  0.14599E+00  0.33236E+00  0.65268E+00
  0.12042E+01  0.21616E+01  0.38309E+01  0.67897E+01  0.11886E+02  0.21066E+02
  0.36884E+02  0.64578E+02  0.11308E+03  0.00000E+00  0.48586E-09  0.99410E-09
  0.27719E-08  0.87696E-08  0.27802E-07  0.33669E-06  0.10046E-05  0.37358E-05
  0.76194E-05  0.15352E-04  0.45751E-04  0.12206E-03  0.28527E-03  0.81264E-03
  0.23705E-02  0.62320E-02  0.15219E-01  0.33280E-01  0.70452E-01  0.14688E+00
  0.29274E+00  0.66576E+00  0.13069E+01  0.24106E+01  0.43260E+01  0.76652E+01
  0.13583E+02  0.23776E+02  0.42136E+02  0.73772E+02  0.12916E+03  0.22616E+03
  0.00000E+00  0.18857E-08  0.35039E-08  0.50530E-08  0.11329E-07  0.35998E-07
  0.55254E-06  0.16375E-05  0.60462E-05  0.12122E-04  0.24093E-04  0.71139E-04
  0.18832E-03  0.43714E-03  0.12397E-02  0.36032E-02  0.94451E-02  0.23002E-01
  0.50203E-01  0.10618E+00  0.22103E+00  0.44013E+00  0.10005E+01  0.19630E+01
  0.36194E+01  0.64934E+01  0.11503E+02  0.20381E+02  0.35670E+02  0.63208E+02
  0.11066E+03  0.19372E+03  0.33921E+03  0.00000E+00  0.53071E-08  0.10254E-07
  0.13029E-07  0.18949E-07  0.44142E-07  0.82320E-06  0.24206E-05  0.88469E-05
  0.17398E-04  0.34015E-04  0.99310E-04  0.26031E-03  0.59917E-03  0.16899E-02
  0.48869E-02  0.12761E-01  0.30983E-01  0.67455E-01  0.14238E+00  0.29596E+00
  0.58869E+00  0.13372E+01  0.26220E+01  0.48321E+01  0.86659E+01  0.15347E+02
  0.27186E+02  0.47572E+02  0.84289E+02  0.14755E+03  0.25829E+03  0.45224E+03
  0.00000E+00  0.15094E-07  0.30608E-07  0.42300E-07  0.52964E-07  0.67597E-07
  0.11293E-05  0.33556E-05  0.12262E-04  0.23601E-04  0.45290E-04  0.13087E-03
  0.33923E-03  0.77358E-03  0.21676E-02  0.62368E-02  0.16205E-01  0.39208E-01
  0.85108E-01  0.17921E+00  0.37194E+00  0.73885E+00  0.16767E+01  0.32850E+01
  0.60504E+01  0.10846E+02  0.19201E+02  0.34003E+02  0.59488E+02  0.10539E+03
  0.18446E+03  0.32288E+03  0.56528E+03  0.00000E+00  0.16477E-06  0.36077E-06
  0.61125E-06  0.95087E-06  0.14061E-05  0.80001E-06  0.18717E-05  0.11766E-04
  0.23234E-04  0.45288E-04  0.14300E-03  0.38252E-03  0.88391E-03  0.25479E-02
  0.74407E-02  0.19426E-01  0.47057E-01  0.10205E+00  0.21467E+00  0.44544E+00
  0.88441E+00  0.20067E+01  0.39304E+01  0.72352E+01  0.12963E+02  0.22940E+02
  0.40613E+02  0.71031E+02  0.12582E+03  0.22018E+03  0.38536E+03  0.67461E+03
  0.00000E+00  0.46960E-06  0.10123E-05  0.16852E-05  0.25681E-05  0.37459E-05
  0.29649E-05  0.27730E-05  0.12296E-04  0.24683E-04  0.48491E-04  0.16497E-03
  0.44856E-03  0.10376E-02  0.30283E-02  0.88744E-02  0.23110E-01  0.55769E-01
  0.12044E+00  0.25245E+00  0.52265E+00  0.10356E+01  0.23467E+01  0.45909E+01
  0.84418E+01  0.15112E+02  0.26723E+02  0.47287E+02  0.82668E+02  0.14639E+03
  0.25612E+03  0.44818E+03  0.78447E+03  0.00000E+00  0.16871E-05  0.35902E-05
  0.58935E-05  0.88146E-05  0.12657E-04  0.13957E-04  0.15420E-04  0.11927E-04
  0.19278E-04  0.34554E-04  0.13972E-03  0.43117E-03  0.10533E-02  0.33182E-02
  0.10061E-01  0.26456E-01  0.63970E-01  0.13787E+00  0.28838E+00  0.59657E+00
  0.11807E+01  0.26734E+01  0.52254E+01  0.95978E+01  0.17163E+02  0.30325E+02
  0.53626E+02  0.93698E+02  0.16587E+03  0.29011E+03  0.50753E+03  0.88819E+03
  0.00000E+00  0.37188E-05  0.78036E-05  0.12554E-04  0.18336E-04  0.25613E-04
  0.28676E-04  0.32407E-04  0.23217E-04  0.31526E-04  0.47661E-04  0.15680E-03
  0.49511E-03  0.12203E-02  0.39235E-02  0.11911E-01  0.31082E-01  0.74514E-01
  0.15926E+00  0.33086E+00  0.68107E+00  0.13424E+01  0.30306E+01  0.59091E+01
  0.10831E+02  0.19338E+02  0.34124E+02  0.60287E+02  0.10526E+03  0.18624E+03
  0.32559E+03  0.56941E+03  0.99623E+03  0.00000E+00  0.00000E+00  0.00000E+00
  0.00000E+00  0.00000E+00  0.00000E+00  0.00000E+00  0.00000E+00  0.00000E+00
  0.00000E+00  0.98535E-04  0.17499E-03  0.52125E-03  0.12974E-02  0.43766E-02
  0.13334E-01  0.34192E-01  0.80437E-01  0.16856E+00  0.34385E+00  0.71387E+00
  0.14149E+01  0.30563E+01  0.59412E+01  0.10862E+02  0.19351E+02  0.34091E+02
  0.60154E+02  0.10492E+03  0.18551E+03  0.32414E+03  0.56662E+03  0.99102E+03
  0.00000E+00  0.00000E+00  0.00000E+00  0.00000E+00  0.00000E+00  0.00000E+00
  0.00000E+00  0.00000E+00  0.00000E+00  0.00000E+00  0.00000E+00  0.32284E-03
  0.47160E-03  0.10207E-02  0.40811E-02  0.13704E-01  0.35724E-01  0.83868E-01
  0.17410E+00  0.35088E+00  0.73201E+00  0.14539E+01  0.30582E+01  0.59287E+01
  0.10807E+02  0.19204E+02  0.33763E+02  0.59483E+02  0.10361E+03  0.18305E+03
  0.31960E+03  0.55836E+03  0.97614E+03  0.00000E+00  0.77590E-04  0.15860E-03
  0.24598E-03  0.34265E-03  0.45279E-03  0.54215E-03  0.65232E-03  0.68390E-03
  0.84526E-03  0.88355E-03  0.00000E+00  0.84576E-03  0.11487E-02  0.37872E-02
  0.14155E-01  0.37829E-01  0.88752E-01  0.18184E+00  0.36236E+00  0.75561E+00
  0.14940E+01  0.30849E+01  0.59543E+01  0.10808E+02  0.19139E+02  0.33552E+02
  0.58987E+02  0.10257E+03  0.18100E+03  0.31569E+03  0.55111E+03  0.96291E+03
  0.00000E+00  0.21752E-03  0.44247E-03  0.68077E-03  0.93898E-03  0.12254E-02
  0.14773E-02  0.17782E-02  0.19548E-02  0.23979E-02  0.27720E-02  0.26898E-02
  0.00000E+00  0.25391E-02  0.33601E-02  0.13187E-01  0.38302E-01  0.91649E-01
  0.18736E+00  0.37007E+00  0.76893E+00  0.15173E+01  0.30955E+01  0.59473E+01
  0.10741E+02  0.18936E+02  0.33076E+02  0.57994E+02  0.10060E+03  0.17728E+03
  0.30879E+03  0.53851E+03  0.94017E+03  0.00000E+00  0.50574E-03  0.10245E-02
  0.15665E-02  0.21434E-02  0.27696E-02  0.33356E-02  0.39904E-02  0.44493E-02
  0.53757E-02  0.60591E-02  0.61371E-02  0.61777E-02  0.00000E+00  0.00000E+00
  0.12444E-01  0.38983E-01  0.96332E-01  0.19609E+00  0.38316E+00  0.79455E+00
  0.15543E+01  0.31379E+01  0.59879E+01  0.10740E+02  0.18821E+02  0.32716E+02
  0.57154E+02  0.98843E+02  0.17384E+03  0.30225E+03  0.52638E+03  0.91804E+03
  0.00000E+00  0.11080E-02  0.22373E-02  0.34048E-02  0.46291E-02  0.59348E-02
  0.71270E-02  0.84664E-02  0.94743E-02  0.11273E-01  0.12435E-01  0.12624E-01
  0.12942E-01  0.13447E-01  0.10197E-01  0.00000E+00  0.40260E-01  0.10333E+00
  0.21007E+00  0.40610E+00  0.83525E+00  0.16146E+01  0.32228E+01  0.60920E+01
  0.10825E+02  0.18822E+02  0.32509E+02  0.56517E+02  0.97345E+02  0.17074E+03
  0.29616E+03  0.51486E+03  0.89671E+03  0.00000E+00  0.25208E-02  0.50780E-02
  0.77002E-02  0.10419E-01  0.13274E-01  0.15929E-01  0.18838E-01  0.21195E-01
  0.24918E-01  0.26894E-01  0.27452E-01  0.28315E-01  0.29771E-01  0.24607E-01
  0.19199E-01  0.00000E+00  0.10566E+00  0.21886E+00  0.42318E+00  0.87222E+00
  0.16705E+01  0.33009E+01  0.61772E+01  0.10856E+02  0.18689E+02  0.32018E+02
  0.55319E+02  0.94778E+02  0.16566E+03  0.28646E+03  0.49681E+03  0.86372E+03
  0.00000E+00  0.54615E-02  0.10982E-01  0.16607E-01  0.22383E-01  0.28383E-01
  0.34002E-01  0.40036E-01  0.45084E-01  0.52444E-01  0.55605E-01  0.56361E-01
  0.57898E-01  0.60477E-01  0.53130E-01  0.37655E-01  0.46459E-01  0.00000E+00
  0.23269E+00  0.45058E+00  0.93013E+00  0.17616E+01  0.34444E+01  0.63613E+01
  0.11020E+02  0.18734E+02  0.31756E+02  0.54420E+02  0.92596E+02  0.16110E+03
  0.27743E+03  0.47964E+03  0.83186E+03  0.00000E+00  0.11981E-01  0.24070E-01
  0.36318E-01  0.48822E-01  0.61681E-01  0.73848E-01  0.86686E-01  0.97782E-01
  0.11283E+00  0.11808E+00  0.11944E+00  0.12196E+00  0.12668E+00  0.11649E+00
  0.88021E-01  0.72761E-01  0.12012E+00  0.00000E+00  0.46938E+00  0.98002E+00
  0.18473E+01  0.35952E+01  0.65531E+01  0.11166E+02  0.18688E+02  0.31263E+02
  0.53024E+02  0.89419E+02  0.15465E+03  0.26490E+03  0.45609E+03  0.78854E+03
  0.00000E+00  0.25432E-01  0.51016E-01  0.76867E-01  0.10312E+00  0.12991E+00
  0.15538E+00  0.18192E+00  0.20526E+00  0.23525E+00  0.24305E+00  0.24436E+00
  0.24797E+00  0.25522E+00  0.23884E+00  0.19272E+00  0.14543E+00  0.15869E+00
  0.26994E+00  0.00000E+00  0.10616E+01  0.19954E+01  0.38413E+01  0.68935E+01
  0.11510E+02  0.18899E+02  0.31094E+02  0.52045E+02  0.86769E+02  0.14890E+03
  0.25327E+03  0.43372E+03  0.74674E+03  0.00000E+00  0.96791E-01  0.19390E+00
  0.29164E+00  0.39013E+00  0.48976E+00  0.58474E+00  0.68191E+00  0.76863E+00
  0.87274E+00  0.89935E+00  0.90037E+00  0.90598E+00  0.91830E+00  0.86782E+00
  0.74233E+00  0.58236E+00  0.45906E+00  0.50376E+00  0.73013E+00  0.14355E+01
  0.25488E+01  0.48466E+01  0.83570E+01  0.13260E+02  0.20718E+02  0.32614E+02
  0.52643E+02  0.85042E+02  0.14264E+03  0.23782E+03  0.40096E+03  0.68202E+03
  0.00000E+00  0.23539E+00  0.47130E+00  0.70810E+00  0.94632E+00  0.11866E+01
  0.14167E+01  0.16503E+01  0.18615E+01  0.21065E+01  0.21264E+01  0.21084E+01
  0.21014E+01  0.21091E+01  0.20025E+01  0.17658E+01  0.14558E+01  0.11294E+01
  0.10202E+01  0.11467E+01  0.17896E+01  0.30669E+01  0.56542E+01  0.95463E+01
  0.14650E+02  0.22084E+02  0.33603E+02  0.52688E+02  0.82895E+02  0.13637E+03
  0.22342E+03  0.37146E+03  0.62496E+03  0.00000E+00  0.53736E+00  0.10755E+01
  0.16150E+01  0.21568E+01  0.27019E+01  0.32255E+01  0.37546E+01  0.42375E+01
  0.47835E+01  0.48122E+01  0.47644E+01  0.47351E+01  0.47301E+01  0.45067E+01
  0.40441E+01  0.34489E+01  0.27564E+01  0.23501E+01  0.22343E+01  0.26675E+01
  0.40105E+01  0.69918E+01  0.11449E+02  0.16928E+02  0.24507E+02  0.35844E+02
  0.54262E+02  0.82638E+02  0.13258E+03  0.21233E+03  0.34660E+03  0.57465E+03
  0.00000E+00  0.11803E+01  0.23617E+01  0.35451E+01  0.47316E+01  0.59233E+01
  0.70704E+01  0.82250E+01  0.92847E+01  0.10462E+02  0.10498E+02  0.10379E+02
  0.10289E+02  0.10238E+02  0.97612E+01  0.88313E+01  0.76597E+01  0.62691E+01
  0.53035E+01  0.47163E+01  0.46784E+01  0.60322E+01  0.95685E+01  0.14955E+02
  0.21188E+02  0.29339E+02  0.41049E+02  0.59631E+02  0.87382E+02  0.13576E+03
  0.21132E+03  0.33687E+03  0.54787E+03  0.00000E+00  0.25187E+01  0.50390E+01
  0.75616E+01  0.10089E+02  0.12623E+02  0.15066E+02  0.17517E+02  0.19775E+02
  0.22252E+02  0.22287E+02  0.22009E+02  0.21776E+02  0.21601E+02  0.20588E+02
  0.18700E+02  0.16360E+02  0.13584E+02  0.11510E+02  0.99697E+01  0.89202E+01
  0.10127E+02  0.14446E+02  0.21338E+02  0.28897E+02  0.38209E+02  0.51009E+02
  0.70787E+02  0.99311E+02  0.14842E+03  0.22314E+03  0.34534E+03  0.54794E+03
  0.00000E+00  0.51579E+01  0.10318E+02  0.15479E+02  0.20647E+02  0.25824E+02
  0.30813E+02  0.35810E+02  0.40412E+02  0.45427E+02  0.45434E+02  0.44808E+02
  0.44247E+02  0.43771E+02  0.41635E+02  0.37790E+02  0.33072E+02  0.27519E+02
  0.23245E+02  0.19854E+02  0.16980E+02  0.18006E+02  0.23917E+02  0.33661E+02
  0.43717E+02  0.55314E+02  0.70492E+02  0.93293E+02  0.12491E+03  0.17862E+03
  0.25789E+03  0.38509E+03  0.59252E+03  0.00000E+00  0.10735E+02  0.21471E+02
  0.32208E+02  0.42952E+02  0.53709E+02  0.64084E+02  0.74463E+02  0.84043E+02
  0.94411E+02  0.94339E+02  0.92997E+02  0.91752E+02  0.90634E+02  0.86232E+02
  0.78480E+02  0.69038E+02  0.57960E+02  0.49190E+02  0.41786E+02  0.34363E+02
  0.33806E+02  0.41040E+02  0.54648E+02  0.68208E+02  0.82890E+02  0.10114E+03
  0.12779E+03  0.16319E+03  0.22257E+03  0.30724E+03  0.44019E+03  0.65282E+03
  0.00000E+00  0.21553E+02  0.43107E+02  0.64657E+02  0.86212E+02  0.10778E+03
  0.12858E+03  0.14937E+03  0.16855E+03  0.18924E+03  0.18896E+03  0.18613E+03
  0.18344E+03  0.18094E+03  0.17192E+03  0.15631E+03  0.13739E+03  0.11529E+03
  0.97606E+02  0.82400E+02  0.66651E+02  0.63597E+02  0.74127E+02  0.95470E+02
  0.11560E+03  0.13585E+03  0.15959E+03  0.19328E+03  0.23587E+03  0.30679E+03
  0.40395E+03  0.55302E+03  0.78625E+03  0.00000E+00  0.43991E+02  0.87979E+02
  0.13195E+03  0.17592E+03  0.21991E+03  0.26236E+03  0.30475E+03  0.34393E+03
  0.38603E+03  0.38527E+03  0.37945E+03  0.37384E+03  0.36848E+03  0.35025E+03
  0.31903E+03  0.28130E+03  0.23732E+03  0.20165E+03  0.17016E+03  0.13560E+03
  0.12451E+03  0.13700E+03  0.16940E+03  0.19939E+03  0.22768E+03  0.25891E+03
  0.30207E+03  0.35376E+03  0.43969E+03  0.55238E+03  0.72121E+03  0.97925E+03
  0.00000E+00  0.88254E+02  0.17649E+03  0.26469E+03  0.35288E+03  0.44107E+03
  0.52620E+03  0.61115E+03  0.68972E+03  0.77395E+03  0.77215E+03  0.76030E+03
  0.74873E+03  0.73755E+03  0.70089E+03  0.63859E+03  0.56349E+03  0.47611E+03
  0.40475E+03  0.34102E+03  0.26959E+03  0.24269E+03  0.25874E+03  0.31182E+03
  0.35955E+03  0.40153E+03  0.44486E+03  0.50319E+03  0.56870E+03  0.67867E+03
  0.81581E+03  0.10167E+04  0.13164E+04  0.00000E+00  0.17704E+03  0.35405E+03
  0.53097E+03  0.70782E+03  0.88467E+03  0.10554E+04  0.12258E+04  0.13834E+04
  0.15521E+04  0.15481E+04  0.15242E+04  0.15007E+04  0.14777E+04  0.14043E+04
  0.12804E+04  0.11312E+04  0.95781E+03  0.81541E+03  0.68690E+03  0.54010E+03
  0.47833E+03  0.49584E+03  0.58411E+03  0.66231E+03  0.72678E+03  0.78881E+03
  0.87016E+03  0.95496E+03  0.11004E+04  0.12718E+04  0.15176E+04  0.18763E+04
  0.00000E+00  0.35507E+03  0.71006E+03  0.10648E+04  0.14195E+04  0.17741E+04
  0.21165E+04  0.24581E+04  0.27744E+04  0.31124E+04  0.31040E+04  0.30560E+04
  0.30086E+04  0.29619E+04  0.28157E+04  0.25697E+04  0.22738E+04  0.19301E+04
  0.16465E+04  0.13882E+04  0.10878E+04  0.95047E+03  0.96075E+03  0.11088E+04
  0.12400E+04  0.13422E+04  0.14337E+04  0.15507E+04  0.16623E+04  0.18610E+04
  0.20802E+04  0.23889E+04  0.28303E+04  0.00000E+00  0.71195E+03  0.14237E+04
  0.21351E+04  0.28461E+04  0.35569E+04  0.42436E+04  0.49286E+04  0.55635E+04
  0.62408E+04  0.62234E+04  0.61275E+04  0.60326E+04  0.59387E+04  0.56480E+04
  0.51602E+04  0.45741E+04  0.38934E+04  0.33294E+04  0.28116E+04  0.21991E+04
  0.19002E+04  0.18775E+04  0.21266E+04  0.23508E+04  0.25173E+04  0.26563E+04
  0.28296E+04  0.29787E+04  0.32585E+04  0.35442E+04  0.39408E+04  0.44980E+04
  0.00000E+00  0.00000E+00  0.00000E+00  0.00000E+00  0.00000E+00  0.00000E+00
  0.00000E+00  0.00000E+00  0.00000E+00  0.00000E+00  0.00000E+00  0.00000E+00
  0.00000E+00  0.00000E+00  0.00000E+00  0.00000E+00  0.00000E+00  0.00000E+00
  0.00000E+00  0.00000E+00  0.00000E+00  0.00000E+00  0.00000E+00  0.00000E+00
  0.00000E+00  0.00000E+00  0.00000E+00  0.00000E+00  0.00000E+00  0.00000E+00
  0.00000E+00  0.00000E+00  0.00000E+00  0.00000E+00  0.00000E+00  0.00000E+00
  0.00000E+00  0.00000E+00  0.00000E+00  0.00000E+00  0.00000E+00  0.00000E+00
  0.00000E+00  0.67450E-05  0.24294E-04  0.70526E-04  0.19265E-03  0.45096E-03
  0.10110E-02  0.23523E-02  0.51880E-02  0.11564E-01  0.24961E-01  0.90803E-01
  0.23553E+00  0.53758E+00  0.11806E+01  0.25192E+01  0.51584E+01  0.10735E+02
  0.21553E+02  0.43990E+02  0.88251E+02  0.17704E+03  0.35505E+03  0.71191E+03
  0.00000E+00  0.00000E+00  0.00000E+00  0.00000E+00  0.00000E+00  0.00000E+00
  0.00000E+00  0.00000E+00  0.00000E+00  0.00000E+00  0.14067E-04  0.50186E-04
  0.14459E-03  0.39267E-03  0.91501E-03  0.20447E-02  0.47439E-02  0.10440E-01
  0.23235E-01  0.50116E-01  0.18195E+00  0.47166E+00  0.10761E+01  0.23626E+01
  0.50402E+01  0.10319E+02  0.21473E+02  0.43108E+02  0.87979E+02  0.17649E+03
  0.35404E+03  0.71003E+03  0.14237E+04  0.00000E+00  0.00000E+00  0.00000E+00
  0.00000E+00  0.00000E+00  0.00000E+00  0.00000E+00  0.00000E+00  0.00000E+00
  0.00000E+00  0.22141E-04  0.78264E-04  0.22344E-03  0.60269E-03  0.13967E-02
  0.31067E-02  0.71858E-02  0.15774E-01  0.35043E-01  0.75463E-01  0.27351E+00
  0.70852E+00  0.16157E+01  0.35460E+01  0.75629E+01  0.15481E+02  0.32210E+02
  0.64657E+02  0.13195E+03  0.26469E+03  0.53094E+03  0.10648E+04  0.21349E+04
  0.00000E+00  0.00000E+00  0.00000E+00  0.00000E+00  0.00000E+00  0.00000E+00
  0.00000E+00  0.00000E+00  0.00000E+00  0.00000E+00  0.31372E-04  0.10951E-03
  0.30932E-03  0.82730E-03  0.19036E-02  0.42116E-02  0.97026E-02  0.21232E-01
  0.47055E-01  0.10116E+00  0.36580E+00  0.94653E+00  0.21571E+01  0.47320E+01
  0.10089E+02  0.20647E+02  0.42951E+02  0.86208E+02  0.17591E+03  0.35286E+03
  0.70778E+03  0.14194E+04  0.28459E+04  0.00000E+00  0.00000E+00  0.00000E+00
  0.00000E+00  0.00000E+00  0.00000E+00  0.00000E+00  0.00000E+00  0.00000E+00
  0.00000E+00  0.42017E-04  0.14478E-03  0.40405E-03  0.10704E-02  0.24432E-02
  0.53710E-02  0.12309E-01  0.26834E-01  0.59313E-01  0.12722E+00  0.45873E+00
  0.11860E+01  0.27007E+01  0.59212E+01  0.12619E+02  0.25817E+02  0.53696E+02
  0.10776E+03  0.21987E+03  0.44099E+03  0.88452E+03  0.17738E+04  0.35563E+04
  0.00000E+00  0.00000E+00  0.00000E+00  0.00000E+00  0.00000E+00  0.00000E+00
  0.00000E+00  0.00000E+00  0.00000E+00  0.00000E+00  0.45059E-04  0.16516E-03
  0.46874E-03  0.12611E-02  0.28919E-02  0.63611E-02  0.14614E-01  0.31875E-01
  0.70518E-01  0.15135E+00  0.54558E+00  0.14114E+01  0.32157E+01  0.70521E+01
  0.15031E+02  0.30748E+02  0.63960E+02  0.12835E+03  0.26190E+03  0.52530E+03
  0.10537E+04  0.21131E+04  0.42370E+04  0.00000E+00  0.00000E+00  0.00000E+00
  0.00000E+00  0.00000E+00  0.00000E+00  0.00000E+00  0.00000E+00  0.00000E+00
  0.00000E+00  0.51674E-04  0.19770E-03  0.56226E-03  0.15149E-02  0.34538E-02
  0.75473E-02  0.17268E-01  0.37505E-01  0.82740E-01  0.17712E+00  0.63609E+00
  0.16439E+01  0.37428E+01  0.82030E+01  0.17476E+02  0.35733E+02  0.74317E+02
  0.14909E+03  0.30421E+03  0.61011E+03  0.12237E+04  0.24541E+04  0.49207E+04
  0.00000E+00  0.00000E+00  0.00000E+00  0.00000E+00  0.00000E+00  0.00000E+00
  0.00000E+00  0.00000E+00  0.00000E+00  0.00000E+00  0.40109E-04  0.19159E-03
  0.58567E-03  0.16598E-02  0.38428E-02  0.84322E-02  0.19406E-01  0.42200E-01
  0.93278E-01  0.19976E+00  0.71671E+00  0.18540E+01  0.42236E+01  0.92589E+01
  0.19727E+02  0.40323E+02  0.83874E+02  0.16823E+03  0.34331E+03  0.68852E+03
  0.13811E+04  0.27699E+04  0.55546E+04  0.00000E+00  0.00000E+00  0.00000E+00
  0.00000E+00  0.00000E+00  0.00000E+00  0.00000E+00  0.00000E+00  0.00000E+00
  0.00000E+00  0.47173E-04  0.22555E-03  0.69945E-03  0.19941E-02  0.45735E-02
  0.99171E-02  0.22614E-01  0.48744E-01  0.10703E+00  0.22789E+00  0.81095E+00
  0.20919E+01  0.47560E+01  0.10410E+02  0.22154E+02  0.45240E+02  0.94051E+02
  0.18855E+03  0.38467E+03  0.77130E+03  0.15469E+04  0.31022E+04  0.62209E+04
  0.00000E+00  0.00000E+00  0.00000E+00  0.00000E+00  0.00000E+00  0.00000E+00
  0.00000E+00  0.00000E+00  0.00000E+00  0.00000E+00  0.00000E+00  0.25132E-03
  0.78809E-03  0.22788E-02  0.51886E-02  0.10975E-01  0.24534E-01  0.51772E-01
  0.11201E+00  0.23464E+00  0.85145E+00  0.20939E+01  0.47500E+01  0.10378E+02
  0.22057E+02  0.44988E+02  0.93471E+02  0.18726E+03  0.38195E+03  0.76564E+03
  0.15353E+04  0.30788E+04  0.61738E+04  0.00000E+00  0.00000E+00  0.00000E+00
  0.00000E+00  0.00000E+00  0.00000E+00  0.00000E+00  0.00000E+00  0.00000E+00
  0.00000E+00  0.00000E+00  0.00000E+00  0.64282E-03  0.20789E-02  0.50466E-02
  0.10897E-01  0.24646E-01  0.51934E-01  0.11211E+00  0.23337E+00  0.85678E+00
  0.20574E+01  0.46669E+01  0.10191E+02  0.21646E+02  0.44103E+02  0.91620E+02
  0.18344E+03  0.37417E+03  0.74992E+03  0.15038E+04  0.30158E+04  0.60483E+04
  0.00000E+00  0.73534E-04  0.15076E-03  0.23297E-03  0.32251E-03  0.42117E-03
  0.48873E-03  0.58624E-03  0.61056E-03  0.72929E-03  0.75181E-03  0.00000E+00
  0.00000E+00  0.19148E-02  0.48660E-02  0.10807E-01  0.24972E-01  0.52718E-01
  0.11377E+00  0.23467E+00  0.86214E+00  0.20374E+01  0.46132E+01  0.10055E+02
  0.21323E+02  0.43367E+02  0.90034E+02  0.18008E+03  0.36724E+03  0.73577E+03
  0.14752E+04  0.29583E+04  0.59335E+04  0.00000E+00  0.20915E-03  0.42650E-03
  0.65438E-03  0.89809E-03  0.11618E-02  0.13693E-02  0.16446E-02  0.18018E-02
  0.21649E-02  0.23859E-02  0.21179E-02  0.15794E-02  0.00000E+00  0.41403E-02
  0.93854E-02  0.23097E-01  0.50112E-01  0.11029E+00  0.22904E+00  0.84479E+00
  0.19803E+01  0.44860E+01  0.97705E+01  0.20697E+02  0.42015E+02  0.87206E+02
  0.17422E+03  0.35531E+03  0.71164E+03  0.14267E+04  0.28615E+04  0.57406E+04
  0.00000E+00  0.48973E-03  0.99399E-03  0.15165E-02  0.20674E-02  0.26533E-02
  0.31404E-02  0.37505E-02  0.41728E-02  0.49669E-02  0.54394E-02  0.51916E-02
  0.49447E-02  0.40157E-02  0.00000E+00  0.88991E-02  0.21413E-01  0.47609E-01
  0.10747E+00  0.22517E+00  0.82912E+00  0.19370E+01  0.43835E+01  0.95262E+01
  0.20135E+02  0.40756E+02  0.84517E+02  0.16857E+03  0.34367E+03  0.68794E+03
  0.13789E+04  0.27655E+04  0.55490E+04  0.00000E+00  0.10807E-02  0.21841E-02
  0.33196E-02  0.45010E-02  0.57394E-02  0.67971E-02  0.80653E-02  0.90116E-02
  0.10597E-01  0.11429E-01  0.11161E-01  0.10980E-01  0.94794E-02  0.89872E-02
  0.00000E+00  0.21288E-01  0.46071E-01  0.10593E+00  0.22364E+00  0.82034E+00
  0.19109E+01  0.43121E+01  0.93334E+01  0.19653E+02  0.39615E+02  0.82007E+02
  0.16316E+03  0.33240E+03  0.66477E+03  0.13318E+04  0.26707E+04  0.53590E+04
  0.00000E+00  0.24758E-02  0.49926E-02  0.75601E-02  0.10209E-01  0.12955E-01
  0.15380E-01  0.18174E-01  0.20421E-01  0.23797E-01  0.25284E-01  0.25090E-01
  0.25270E-01  0.23233E-01  0.21498E-01  0.21329E-01  0.00000E+00  0.44234E-01
  0.97664E-01  0.20951E+00  0.78048E+00  0.18313E+01  0.41431E+01  0.89514E+01
  0.18793E+02  0.37705E+02  0.77952E+02  0.15465E+03  0.31491E+03  0.62918E+03
  0.12600E+04  0.25267E+04  0.50716E+04  0.00000E+00  0.53807E-02  0.10823E-01
  0.16355E-01  0.22015E-01  0.27826E-01  0.33054E-01  0.38893E-01  0.43763E-01
  0.50544E-01  0.52918E-01  0.52554E-01  0.53131E-01  0.50309E-01  0.47700E-01
  0.46163E-01  0.44234E-01  0.00000E+00  0.98634E-01  0.20192E+00  0.74699E+00
  0.17680E+01  0.40075E+01  0.86288E+01  0.18030E+02  0.35939E+02  0.74120E+02
  0.14645E+03  0.29790E+03  0.59427E+03  0.11891E+04  0.23841E+04  0.47862E+04
  0.00000E+00  0.11863E-01  0.23846E-01  0.35958E-01  0.48292E-01  0.60867E-01
  0.72384E-01  0.84921E-01  0.95742E-01  0.10985E+00  0.11357E+00  0.11299E+00
  0.11421E+00  0.11051E+00  0.10769E+00  0.10613E+00  0.97850E-01  0.98634E-01
  0.00000E+00  0.20315E+00  0.68749E+00  0.16446E+01  0.37603E+01  0.80993E+01
  0.16869E+02  0.33382E+02  0.68722E+02  0.13512E+03  0.27466E+03  0.54696E+03
  0.10937E+04  0.21927E+04  0.44040E+04  0.00000E+00  0.25263E-01  0.50723E-01
