  0.63850E+00  0.10605E+01  0.17101E+01  0.27610E+01  0.44622E+01  0.72161E+01
  0.11594E+02  0.18575E+02  0.29769E+02  0.00000E+00  0.00000E+00  0.00000E+00
  0.00000E+00  0.00000E+00  0.00000E+00  0.00000E+00  0.00000E+00  0.00000E+00
  0.00000E+00  0.12325E-04  0.18988E-03  0.64110E-03  0.14172E-02  0.28305E-02
  0.53476E-02  0.10081E-01  0.18513E-01  0.31790E-01  0.52107E-01  0.96979E-01
  0.16345E+00  0.27264E+00  0.45085E+00  0.73470E+00  0.12177E+01  0.19603E+01
  0.31605E+01  0.51022E+01  0.82438E+01  0.13236E+02  0.21193E+02  0.33949E+02
  0.00000E+00  0.00000E+00  0.00000E+00  0.00000E+00  0.00000E+00  0.00000E+00
  0.00000E+00  0.00000E+00  0.00000E+00  0.00000E+00  0.36284E-04  0.23627E-03
  0.79288E-03  0.17465E-02  0.34520E-02  0.64464E-02  0.12024E-01  0.21861E-01
  0.37194E-01  0.60488E-01  0.11187E+00  0.18745E+00  0.31124E+00  0.51264E+00
  0.83266E+00  0.13766E+01  0.22113E+01  0.35589E+01  0.57374E+01  0.92601E+01
  0.14855E+02  0.23767E+02  0.38050E+02  0.00000E+00  0.00000E+00  0.00000E+00
  0.00000E+00  0.00000E+00  0.00000E+00  0.00000E+00  0.00000E+00  0.00000E+00
  0.00000E+00  0.91220E-04  0.27735E-03  0.95698E-03  0.21254E-02  0.41725E-02
  0.77132E-02  0.14242E-01  0.25629E-01  0.43144E-01  0.69568E-01  0.12772E+00
  0.21257E+00  0.35108E+00  0.57556E+00  0.93117E+00  0.15349E+01  0.24589E+01
  0.39492E+01  0.63558E+01  0.10245E+02  0.16416E+02  0.26241E+02  0.41981E+02
  0.00000E+00  0.00000E+00  0.00000E+00  0.00000E+00  0.00000E+00  0.00000E+00
  0.00000E+00  0.00000E+00  0.00000E+00  0.00000E+00  0.21645E-03  0.28463E-03
  0.11042E-02  0.25363E-02  0.49897E-02  0.91607E-02  0.16774E-01  0.29880E-01
  0.49733E-01  0.79435E-01  0.14464E+00  0.23885E+00  0.39204E+00  0.63911E+00
  0.10290E+01  0.16902E+01  0.26987E+01  0.43228E+01  0.69426E+01  0.11172E+02
  0.17877E+02  0.28544E+02  0.45625E+02  0.00000E+00  0.00000E+00  0.00000E+00
  0.00000E+00  0.00000E+00  0.00000E+00  0.00000E+00  0.00000E+00  0.00000E+00
  0.00000E+00  0.51234E-03  0.16294E-03  0.11165E-02  0.28599E-02  0.57748E-02
  0.10643E-01  0.19454E-01  0.34405E-01  0.56631E-01  0.89652E-01  0.16188E+00
  0.26506E+00  0.43210E+00  0.69996E+00  0.11207E+01  0.18333E+01  0.29155E+01
  0.46551E+01  0.74576E+01  0.11977E+02  0.19133E+02  0.30506E+02  0.48706E+02
  0.00000E+00  0.00000E+00  0.00000E+00  0.00000E+00  0.00000E+00  0.00000E+00
  0.00000E+00  0.00000E+00  0.00000E+00  0.00000E+00  0.11908E-02  0.31879E-03
  0.75104E-03  0.28636E-02  0.62990E-02  0.11930E-01  0.22058E-01  0.38993E-01
  0.63567E-01  0.99843E-01  0.17890E+00  0.29031E+00  0.46982E+00  0.75556E+00
  0.12017E+01  0.19567E+01  0.30964E+01  0.49246E+01  0.78649E+01  0.12601E+02
  0.20087E+02  0.31968E+02  0.50968E+02  0.00000E+00  0.00000E+00  0.00000E+00
  0.00000E+00  0.00000E+00  0.00000E+00  0.00000E+00  0.00000E+00  0.00000E+00
  0.00000E+00  0.26229E-02  0.15258E-02  0.48378E-03  0.21298E-02  0.61567E-02
  0.12623E-01  0.24220E-01  0.43297E-01  0.70162E-01  0.10968E+00  0.19530E+00
  0.31411E+00  0.50453E+00  0.80494E+00  0.12704E+01  0.20580E+01  0.32371E+01
  0.51239E+01  0.81526E+01  0.13024E+02  0.20707E+02  0.32879E+02  0.52326E+02
  0.00000E+00  0.00000E+00  0.00000E+00  0.00000E+00  0.00000E+00  0.00000E+00
  0.00000E+00  0.00000E+00  0.00000E+00  0.00000E+00  0.00000E+00  0.00000E+00
  0.41471E-02  0.87603E-03  0.38581E-02  0.11013E-01  0.23800E-01  0.44092E-01
  0.71219E-01  0.11361E+00  0.19477E+00  0.31081E+00  0.49573E+00  0.78381E+00
  0.12254E+01  0.19735E+01  0.30800E+01  0.48445E+01  0.76700E+01  0.12207E+02
  0.19337E+02  0.30607E+02  0.48590E+02  0.00000E+00  0.76511E-03  0.15571E-02
  0.23871E-02  0.32695E-02  0.42248E-02  0.52894E-02  0.12559E-02  0.00000E+00
  0.00000E+00  0.00000E+00  0.00000E+00  0.10938E-01  0.72891E-02  0.15466E-02
  0.67583E-02  0.21150E-01  0.43324E-01  0.71021E-01  0.11610E+00  0.19543E+00
  0.30986E+00  0.49084E+00  0.76837E+00  0.11880E+01  0.18999E+01  0.29365E+01
  0.45827E+01  0.72101E+01  0.11419E+02  0.18004E+02  0.28383E+02  0.44913E+02
  0.00000E+00  0.26702E-02  0.54108E-02  0.82517E-02  0.11230E-01  0.14398E-01
  0.17853E-01  0.19784E-01  0.21436E-01  0.22285E-01  0.00000E+00  0.00000E+00
  0.00000E+00  0.19265E-01  0.12904E-01  0.27238E-02  0.14676E-01  0.39938E-01
  0.69157E-01  0.11783E+00  0.19818E+00  0.31304E+00  0.49285E+00  0.76286E+00
  0.11639E+01  0.18449E+01  0.28167E+01  0.43510E+01  0.67889E+01  0.10681E+02
  0.16736E+02  0.26238E+02  0.41338E+02  0.00000E+00  0.67143E-02  0.13563E-01
  0.20604E-01  0.27907E-01  0.35571E-01  0.43773E-01  0.47508E-01  0.51047E-01
  0.54611E-01  0.58419E-01  0.52470E-01  0.00000E+00  0.00000E+00  0.42384E-01
  0.33530E-01  0.14040E-01  0.14979E-01  0.43007E-01  0.91672E-01  0.16882E+00
  0.27604E+00  0.44301E+00  0.68696E+00  0.10404E+01  0.16485E+01  0.24876E+01
  0.38061E+01  0.58934E+01  0.92174E+01  0.14347E+02  0.22352E+02  0.35039E+02
  0.00000E+00  0.15300E-01  0.30829E-01  0.46683E-01  0.62978E-01  0.79880E-01
  0.97691E-01  0.10382E+00  0.10955E+00  0.11517E+00  0.12136E+00  0.11137E+00
  0.11579E+00  0.10829E+00  0.00000E+00  0.85564E-01  0.65281E-01  0.32470E-01
  0.00000E+00  0.52229E-01  0.13112E+00  0.23544E+00  0.39618E+00  0.62189E+00
  0.93759E+00  0.14902E+01  0.22181E+01  0.33543E+01  0.51442E+01  0.79841E+01
  0.12318E+02  0.19027E+02  0.29625E+02  0.00000E+00  0.33156E-01  0.66661E-01
  0.10071E+00  0.13548E+00  0.17121E+00  0.20843E+00  0.21791E+00  0.22692E+00
  0.23607E+00  0.24529E+00  0.22765E+00  0.23406E+00  0.22260E+00  0.21055E+00
  0.19935E+00  0.00000E+00  0.13506E+00  0.11120E+00  0.52406E-01  0.35657E-01
  0.13301E+00  0.28160E+00  0.47822E+00  0.73857E+00  0.12140E+01  0.17932E+01
  0.26940E+01  0.41095E+01  0.63528E+01  0.97196E+01  0.14876E+02  0.22992E+02
  0.00000E+00  0.68831E-01  0.13824E+00  0.20851E+00  0.27984E+00  0.35269E+00
  0.42784E+00  0.44259E+00  0.45565E+00  0.46996E+00  0.48359E+00  0.45252E+00
  0.45954E+00  0.43909E+00  0.42079E+00  0.40234E+00  0.37123E+00  0.00000E+00
  0.31069E+00  0.25796E+00  0.17898E+00  0.77182E-01  0.74514E-01  0.23613E+00
  0.42970E+00  0.81760E+00  0.12261E+01  0.18635E+01  0.28696E+01  0.44729E+01
  0.68140E+01  0.10340E+02  0.15877E+02  0.00000E+00  0.14320E+00  0.28729E+00
  0.43273E+00  0.57978E+00  0.72914E+00  0.88209E+00  0.90203E+00  0.92098E+00
  0.94116E+00  0.96054E+00  0.90189E+00  0.90653E+00  0.86794E+00  0.83295E+00
  0.80133E+00  0.75171E+00  0.69440E+00  0.00000E+00  0.63322E+00  0.57203E+00
  0.51017E+00  0.39370E+00  0.26075E+00  0.11845E+00  0.20676E+00  0.41064E+00
  0.74218E+00  0.12857E+01  0.21823E+01  0.34066E+01  0.51828E+01  0.79894E+01
  0.00000E+00  0.30571E+00  0.61259E+00  0.92162E+00  0.12333E+01  0.15483E+01
  0.18691E+01  0.18836E+01  0.19017E+01  0.19239E+01  0.19498E+01  0.18344E+01
  0.18201E+01  0.17428E+01  0.16726E+01  0.16099E+01  0.15185E+01  0.14269E+01
  0.14179E+01  0.13677E+01  0.13062E+01  0.12870E+01  0.12406E+01  0.12444E+01
  0.13388E+01  0.12078E+01  0.13995E+01  0.15959E+01  0.17446E+01  0.17287E+01
  0.19597E+01  0.25038E+01  0.31074E+01  0.00000E+00  0.60163E+00  0.12049E+01
  0.18113E+01  0.24215E+01  0.30364E+01  0.36601E+01  0.36813E+01  0.37078E+01
  0.37402E+01  0.37770E+01  0.35663E+01  0.35171E+01  0.33692E+01  0.32336E+01
  0.31118E+01  0.29461E+01  0.27871E+01  0.27687E+01  0.26984E+01  0.26330E+01
  0.26622E+01  0.26993E+01  0.28742E+01  0.32655E+01  0.35177E+01  0.43980E+01
  0.56181E+01  0.73097E+01  0.96491E+01  0.13580E+02  0.19931E+02  0.29660E+02
  0.00000E+00  0.11736E+01  0.23493E+01  0.35297E+01  0.47153E+01  0.59072E+01
  0.71121E+01  0.71426E+01  0.71805E+01  0.72264E+01  0.72769E+01  0.68811E+01
  0.67451E+01  0.64516E+01  0.61773E+01  0.59249E+01  0.55969E+01  0.52839E+01
  0.52086E+01  0.50531E+01  0.49193E+01  0.49522E+01  0.50262E+01  0.53439E+01
  0.60218E+01  0.66048E+01  0.81526E+01  0.10332E+02  0.13423E+02  0.17832E+02
  0.24961E+02  0.36228E+02  0.53512E+02  0.00000E+00  0.22736E+01  0.45495E+01
  0.68324E+01  0.91224E+01  0.11421E+02  0.13738E+02  0.13781E+02  0.13835E+02
  0.13899E+02  0.13967E+02  0.13230E+02  0.12915E+02  0.12346E+02  0.11805E+02
  0.11299E+02  0.10659E+02  0.10048E+02  0.98395E+01  0.94990E+01  0.92052E+01
  0.91943E+01  0.92708E+01  0.97507E+01  0.10797E+02  0.11782E+02  0.14196E+02
  0.17591E+02  0.22409E+02  0.29308E+02  0.40207E+02  0.57140E+02  0.82934E+02
  0.00000E+00  0.43343E+01  0.86710E+01  0.13018E+02  0.17374E+02  0.21740E+02
  0.26135E+02  0.26196E+02  0.26272E+02  0.26360E+02  0.26449E+02  0.25100E+02
  0.24439E+02  0.23363E+02  0.22333E+02  0.21353E+02  0.20137E+02  0.18969E+02
  0.18485E+02  0.17774E+02  0.17148E+02  0.16992E+02  0.16990E+02  0.17635E+02
  0.19152E+02  0.20619E+02  0.24175E+02  0.29147E+02  0.36159E+02  0.46144E+02
  0.61632E+02  0.85308E+02  0.12098E+03  0.00000E+00  0.86625E+01  0.17326E+02
  0.26006E+02  0.34698E+02  0.43402E+02  0.52150E+02  0.52239E+02  0.52348E+02
  0.52474E+02  0.52589E+02  0.50065E+02  0.48711E+02  0.46655E+02  0.44669E+02
  0.42766E+02  0.40432E+02  0.38183E+02  0.37143E+02  0.35702E+02  0.34420E+02
  0.33958E+02  0.33778E+02  0.34692E+02  0.37022E+02  0.39336E+02  0.44878E+02
  0.52567E+02  0.63320E+02  0.78504E+02  0.10159E+03  0.13624E+03  0.18773E+03
  0.00000E+00  0.16603E+02  0.33205E+02  0.49830E+02  0.66471E+02  0.83123E+02
  0.99841E+02  0.99967E+02  0.10012E+03  0.10029E+03  0.10043E+03  0.95846E+02
  0.93218E+02  0.89415E+02  0.85719E+02  0.82149E+02  0.77801E+02  0.73593E+02
  0.71469E+02  0.68631E+02  0.66053E+02  0.64852E+02  0.64107E+02  0.65136E+02
  0.68382E+02  0.71551E+02  0.79589E+02  0.90662E+02  0.10601E+03  0.12745E+03
  0.15957E+03  0.20697E+03  0.27633E+03  0.00000E+00  0.33229E+02  0.66448E+02
  0.99706E+02  0.13298E+03  0.16626E+03  0.19965E+03  0.19983E+03  0.20005E+03
  0.20029E+03  0.20044E+03  0.19191E+03  0.18678E+03  0.17961E+03  0.17260E+03
  0.16579E+03  0.15754E+03  0.14953E+03  0.14525E+03  0.13965E+03  0.13449E+03
  0.13174E+03  0.12976E+03  0.13078E+03  0.13545E+03  0.13991E+03  0.15210E+03
  0.16879E+03  0.19172E+03  0.22344E+03  0.27024E+03  0.33810E+03  0.43572E+03
  0.00000E+00  0.59458E+02  0.11889E+03  0.17838E+03  0.23790E+03  0.29740E+03
  0.35706E+03  0.35731E+03  0.35761E+03  0.35791E+03  0.35807E+03  0.34384E+03
  0.33502E+03  0.32294E+03  0.31111E+03  0.29957E+03  0.28564E+03  0.27208E+03
  0.26456E+03  0.25486E+03  0.24585E+03  0.24069E+03  0.23671E+03  0.23743E+03
  0.24374E+03  0.24958E+03  0.26698E+03  0.29072E+03  0.32316E+03  0.36767E+03
  0.43262E+03  0.52551E+03  0.65724E+03  0.00000E+00  0.10613E+03  0.21220E+03
  0.31836E+03  0.42455E+03  0.53069E+03  0.63707E+03  0.63741E+03  0.63780E+03
  0.63819E+03  0.63829E+03  0.61450E+03  0.59938E+03  0.57903E+03  0.55903E+03
  0.53946E+03  0.51588E+03  0.49284E+03  0.47967E+03  0.46283E+03  0.44704E+03
  0.43739E+03  0.42951E+03  0.42899E+03  0.43703E+03  0.44397E+03  0.46831E+03
  0.50148E+03  0.54663E+03  0.60818E+03  0.69731E+03  0.82323E+03  0.99931E+03
  0.00000E+00  0.00000E+00  0.00000E+00  0.00000E+00  0.00000E+00  0.00000E+00
  0.00000E+00  0.00000E+00  0.00000E+00  0.00000E+00  0.00000E+00  0.00000E+00
  0.00000E+00  0.00000E+00  0.00000E+00  0.00000E+00  0.00000E+00  0.00000E+00
  0.00000E+00  0.00000E+00  0.00000E+00  0.00000E+00  0.00000E+00  0.00000E+00
  0.00000E+00  0.00000E+00  0.00000E+00  0.00000E+00  0.00000E+00  0.00000E+00
  0.00000E+00  0.00000E+00  0.00000E+00  0.00000E+00  0.00000E+00  0.00000E+00
  0.00000E+00  0.00000E+00  0.00000E+00  0.00000E+00  0.00000E+00  0.00000E+00
  0.00000E+00  0.00000E+00  0.00000E+00  0.00000E+00  0.67889E-04  0.19536E-03
  0.55787E-03  0.14484E-02  0.35724E-02  0.79160E-02  0.16833E-01  0.37460E-01
  0.73110E-01  0.16542E+00  0.32491E+00  0.59957E+00  0.10764E+01  0.19077E+01
  0.33813E+01  0.59194E+01  0.10492E+02  0.18370E+02  0.32164E+02  0.56324E+02
  0.00000E+00  0.00000E+00  0.00000E+00  0.00000E+00  0.00000E+00  0.00000E+00
  0.00000E+00  0.00000E+00  0.00000E+00  0.00000E+00  0.00000E+00  0.00000E+00
  0.00000E+00  0.13779E-03  0.39525E-03  0.11262E-02  0.29179E-02  0.71842E-02
  0.15895E-01  0.33776E-01  0.75072E-01  0.14643E+00  0.33136E+00  0.65060E+00
  0.12003E+01  0.21543E+01  0.38175E+01  0.67656E+01  0.11843E+02  0.20989E+02
  0.36749E+02  0.64341E+02  0.11267E+03  0.00000E+00  0.00000E+00  0.00000E+00
  0.00000E+00  0.00000E+00  0.00000E+00  0.00000E+00  0.00000E+00  0.00000E+00
  0.00000E+00  0.00000E+00  0.00000E+00  0.00000E+00  0.21028E-03  0.60141E-03
  0.17089E-02  0.44162E-02  0.10851E-01  0.23968E-01  0.50852E-01  0.11298E+00
  0.22020E+00  0.49767E+00  0.97673E+00  0.18013E+01  0.32322E+01  0.57266E+01
  0.10147E+02  0.17760E+02  0.31474E+02  0.55103E+02  0.96470E+02  0.16892E+03
  0.00000E+00  0.00000E+00  0.00000E+00  0.00000E+00  0.00000E+00  0.00000E+00
  0.00000E+00  0.00000E+00  0.00000E+00  0.00000E+00  0.00000E+00  0.00000E+00
  0.00000E+00  0.28602E-03  0.81541E-03  0.23088E-02  0.59492E-02  0.14582E-01
  0.32144E-01  0.68108E-01  0.15112E+00  0.29428E+00  0.66467E+00  0.13038E+01
  0.24035E+01  0.43113E+01  0.76366E+01  0.13529E+02  0.23676E+02  0.41953E+02
  0.73443E+02  0.12857E+03  0.22512E+03  0.00000E+00  0.00000E+00  0.00000E+00
  0.00000E+00  0.00000E+00  0.00000E+00  0.00000E+00  0.00000E+00  0.00000E+00
  0.00000E+00  0.00000E+00  0.00000E+00  0.00000E+00  0.36527E-03  0.10386E-02
  0.29324E-02  0.75312E-02  0.18407E-01  0.40476E-01  0.85586E-01  0.18963E+00
  0.36886E+00  0.83246E+00  0.16319E+01  0.30067E+01  0.53912E+01  0.95464E+01
  0.16909E+02  0.29585E+02  0.52416E+02  0.91749E+02  0.16060E+03  0.28119E+03
  0.00000E+00  0.00000E+00  0.00000E+00  0.00000E+00  0.00000E+00  0.00000E+00
  0.00000E+00  0.00000E+00  0.00000E+00  0.00000E+00  0.00000E+00  0.00000E+00
  0.00000E+00  0.44780E-03  0.12715E-02  0.35817E-02  0.91674E-02  0.22334E-01
  0.48971E-01  0.10333E+00  0.22856E+00  0.44401E+00  0.10014E+01  0.19615E+01
  0.36117E+01  0.64726E+01  0.11457E+02  0.20286E+02  0.35486E+02  0.62861E+02
  0.11002E+03  0.19256E+03  0.33712E+03  0.00000E+00  0.00000E+00  0.00000E+00
  0.00000E+00  0.00000E+00  0.00000E+00  0.00000E+00  0.00000E+00  0.00000E+00
  0.00000E+00  0.00000E+00  0.00000E+00  0.00000E+00  0.53096E-03  0.15125E-02
  0.42590E-02  0.10868E-01  0.26388E-01  0.57669E-01  0.12132E+00  0.26798E+00
  0.51980E+00  0.11707E+01  0.22912E+01  0.42155E+01  0.75499E+01  0.13357E+02
  0.23642E+02  0.41344E+02  0.73223E+02  0.12813E+03  0.22424E+03  0.39253E+03
  0.00000E+00  0.00000E+00  0.00000E+00  0.00000E+00  0.00000E+00  0.00000E+00
  0.00000E+00  0.00000E+00  0.00000E+00  0.00000E+00  0.00000E+00  0.00000E+00
  0.00000E+00  0.60925E-03  0.17550E-02  0.49583E-02  0.12626E-01  0.30562E-01
  0.66562E-01  0.13960E+00  0.30773E+00  0.59588E+00  0.13405E+01  0.26207E+01
  0.48171E+01  0.86207E+01  0.15242E+02  0.26966E+02  0.47139E+02  0.83466E+02
  0.14602E+03  0.25551E+03  0.44721E+03  0.00000E+00  0.00000E+00  0.00000E+00
  0.00000E+00  0.00000E+00  0.00000E+00  0.00000E+00  0.00000E+00  0.00000E+00
  0.00000E+00  0.00000E+00  0.00000E+00  0.00000E+00  0.66747E-03  0.19798E-02
  0.56612E-02  0.14427E-01  0.34840E-01  0.75582E-01  0.15802E+00  0.34764E+00
  0.67191E+00  0.15099E+01  0.29484E+01  0.54134E+01  0.96784E+01  0.17099E+02
  0.30234E+02  0.52826E+02  0.93508E+02  0.16355E+03  0.28611E+03  0.50070E+03
  0.00000E+00  0.00000E+00  0.00000E+00  0.00000E+00  0.00000E+00  0.00000E+00
  0.00000E+00  0.00000E+00  0.00000E+00  0.00000E+00  0.00000E+00  0.00000E+00
  0.00000E+00  0.66841E-03  0.21366E-02  0.62988E-02  0.16170E-01  0.39070E-01
  0.84513E-01  0.17615E+00  0.38694E+00  0.74653E+00  0.16757E+01  0.32686E+01
  0.59933E+01  0.10703E+02  0.18891E+02  0.33380E+02  0.58288E+02  0.10314E+03
  0.18033E+03  0.31539E+03  0.55182E+03  0.00000E+00  0.00000E+00  0.00000E+00
  0.00000E+00  0.00000E+00  0.00000E+00  0.00000E+00  0.00000E+00  0.00000E+00
  0.00000E+00  0.00000E+00  0.00000E+00  0.00000E+00  0.53562E-03  0.21247E-02
  0.67482E-02  0.17696E-01  0.43028E-01  0.92940E-01  0.19331E+00  0.42449E+00
  0.81771E+00  0.18344E+01  0.35742E+01  0.65438E+01  0.11670E+02  0.20574E+02
  0.36323E+02  0.63376E+02  0.11210E+03  0.19590E+03  0.34251E+03  0.59912E+03
  0.00000E+00  0.00000E+00  0.00000E+00  0.00000E+00  0.00000E+00  0.00000E+00
  0.00000E+00  0.00000E+00  0.00000E+00  0.00000E+00  0.00000E+00  0.00000E+00
  0.00000E+00  0.67553E-04  0.16697E-02  0.66391E-02  0.18480E-01  0.45912E-01
  0.99611E-01  0.20734E+00  0.45654E+00  0.87967E+00  0.19746E+01  0.38458E+01
  0.70304E+01  0.12517E+02  0.22037E+02  0.38868E+02  0.67749E+02  0.11978E+03
  0.20921E+03  0.36561E+03  0.63932E+03  0.00000E+00  0.00000E+00  0.00000E+00
  0.00000E+00  0.00000E+00  0.00000E+00  0.00000E+00  0.00000E+00  0.00000E+00
  0.00000E+00  0.00000E+00  0.00000E+00  0.00000E+00  0.10902E-02  0.32683E-03
  0.54303E-02  0.17827E-01  0.46802E-01  0.10311E+00  0.21608E+00  0.47971E+00
  0.92673E+00  0.20867E+01  0.40663E+01  0.74221E+01  0.13190E+02  0.23181E+02
  0.40835E+02  0.71087E+02  0.12562E+03  0.21924E+03  0.38293E+03  0.66932E+03
  0.00000E+00  0.00000E+00  0.00000E+00  0.00000E+00  0.00000E+00  0.00000E+00
  0.00000E+00  0.00000E+00  0.00000E+00  0.00000E+00  0.00000E+00  0.00000E+00
  0.00000E+00  0.34585E-02  0.25090E-02  0.24516E-02  0.14995E-01  0.44835E-01
  0.10244E+00  0.21821E+00  0.49240E+00  0.95703E+00  0.21673E+01  0.42303E+01
  0.77093E+01  0.13670E+02  0.23973E+02  0.42169E+02  0.73287E+02  0.12943E+03
  0.22568E+03  0.39388E+03  0.68809E+03  0.00000E+00  0.00000E+00  0.00000E+00
  0.00000E+00  0.00000E+00  0.00000E+00  0.00000E+00  0.00000E+00  0.00000E+00
  0.00000E+00  0.00000E+00  0.00000E+00  0.00000E+00  0.00000E+00  0.89607E-02
  0.47298E-02  0.69492E-02  0.35553E-01  0.89742E-01  0.19848E+00  0.45957E+00
  0.92366E+00  0.20420E+01  0.40032E+01  0.72847E+01  0.12881E+02  0.22524E+02
  0.39541E+02  0.68559E+02  0.12099E+03  0.21068E+03  0.36733E+03  0.64120E+03
  0.00000E+00  0.49438E-03  0.10016E-02  0.15323E-02  0.20972E-02  0.27116E-02
  0.33442E-02  0.40779E-02  0.48266E-02  0.59134E-02  0.00000E+00  0.00000E+00
  0.00000E+00  0.00000E+00  0.00000E+00  0.16348E-01  0.57695E-02  0.21331E-01
  0.71471E-01  0.17257E+00  0.42217E+00  0.87577E+00  0.19242E+01  0.37906E+01
  0.68818E+01  0.12121E+02  0.21114E+02  0.36967E+02  0.63900E+02  0.11265E+03
  0.19581E+03  0.34094E+03  0.59452E+03  0.00000E+00  0.17655E-02  0.35647E-02
  0.54287E-02  0.73840E-02  0.94717E-02  0.11598E-01  0.13995E-01  0.16424E-01
  0.19757E-01  0.23021E-01  0.25401E-01  0.65040E-02  0.00000E+00  0.00000E+00
  0.00000E+00  0.25925E-01  0.00000E+00  0.46497E-01  0.14014E+00  0.38068E+00
  0.82253E+00  0.18194E+01  0.36027E+01  0.65154E+01  0.11411E+02  0.19771E+02
  0.34482E+02  0.59358E+02  0.10446E+03  0.18114E+03  0.31481E+03  0.54819E+03
  0.00000E+00  0.44440E-02  0.89560E-02  0.13586E-01  0.18389E-01  0.23445E-01
  0.28584E-01  0.34232E-01  0.39961E-01  0.47392E-01  0.53717E-01  0.59279E-01
  0.65842E-01  0.74110E-01  0.73359E-01  0.00000E+00  0.00000E+00  0.53034E-01
  0.18851E-01  0.54956E-01  0.26866E+00  0.66334E+00  0.15675E+01  0.31842E+01
  0.57696E+01  0.10063E+02  0.17340E+02  0.30131E+02  0.51594E+02  0.90708E+02
  0.15680E+03  0.27186E+03  0.47255E+03  0.00000E+00  0.10154E-01  0.20421E-01
  0.30892E-01  0.41669E-01  0.52860E-01  0.64133E-01  0.76270E-01  0.88447E-01
  0.10356E+00  0.11373E+00  0.12227E+00  0.13265E+00  0.14645E+00  0.15635E+00
  0.15894E+00  0.15596E+00  0.00000E+00  0.10758E+00  0.50578E-01  0.14687E+00
  0.50859E+00  0.13531E+01  0.28477E+01  0.51676E+01  0.89557E+01  0.15310E+02
  0.26455E+02  0.44970E+02  0.78903E+02  0.13580E+03  0.23468E+03  0.40688E+03
  0.00000E+00  0.21998E-01  0.44178E-01  0.66712E-01  0.89703E-01  0.11338E+00
  0.13709E+00  0.16222E+00  0.18721E+00  0.21708E+00  0.23298E+00  0.24596E+00
  0.26167E+00  0.28269E+00  0.29753E+00  0.30288E+00  0.30221E+00  0.28744E+00
  0.00000E+00  0.23370E+00  0.59656E-01  0.25660E+00  0.10299E+01  0.23752E+01
  0.43720E+01  0.75523E+01  0.12810E+02  0.22020E+02  0.37089E+02  0.65006E+02
  0.11127E+03  0.19146E+03  0.33088E+03  0.00000E+00  0.45751E-01  0.91788E-01
  0.13838E+00  0.18568E+00  0.23404E+00  0.28226E+00  0.33267E+00  0.38243E+00
  0.44015E+00  0.46399E+00  0.48303E+00  0.50621E+00  0.53683E+00  0.55661E+00
  0.56332E+00  0.56390E+00  0.54956E+00  0.54970E+00  0.00000E+00  0.37724E+00
  0.10362E+00  0.60535E+00  0.18058E+01  0.34697E+01  0.60201E+01  0.10146E+02
  0.17376E+02  0.28932E+02  0.50758E+02  0.86265E+02  0.14763E+03  0.25406E+03
  0.00000E+00  0.95093E-01  0.19071E+00  0.28704E+00  0.38460E+00  0.48370E+00
  0.58220E+00  0.68391E+00  0.78377E+00  0.89665E+00  0.93031E+00  0.95473E+00
  0.98767E+00  0.10305E+01  0.10553E+01  0.10584E+01  0.10520E+01  0.10305E+01
  0.10423E+01  0.10688E+01  0.00000E+00  0.65976E+00  0.00000E+00  0.10680E+01
  0.23863E+01  0.42740E+01  0.72163E+01  0.12399E+02  0.20335E+02  0.35956E+02
  0.60533E+02  0.10284E+03  0.17596E+03  0.00000E+00  0.20320E+00  0.40708E+00
  0.61218E+00  0.81907E+00  0.10287E+01  0.12359E+01  0.14483E+01  0.16555E+01
  0.18850E+01  0.19167E+01  0.19386E+01  0.19755E+01  0.20329E+01  0.20546E+01
  0.20372E+01  0.20078E+01  0.19590E+01  0.19692E+01  0.19994E+01  0.18296E+01
  0.16203E+01  0.95789E+00  0.00000E+00  0.95048E+00  0.21174E+01  0.37829E+01
  0.67983E+01  0.10931E+02  0.20138E+02  0.33473E+02  0.56297E+02  0.95578E+02
  0.00000E+00  0.40016E+00  0.80131E+00  0.12042E+01  0.16097E+01  0.20193E+01
  0.24235E+01  0.28351E+01  0.32352E+01  0.36714E+01  0.37165E+01  0.37412E+01
  0.37880E+01  0.38645E+01  0.38747E+01  0.38149E+01  0.37344E+01  0.36258E+01
  0.36186E+01  0.36564E+01  0.34353E+01  0.32329E+01  0.25424E+01  0.16891E+01
  0.11666E+01  0.83631E+00  0.62051E+00  0.00000E+00  0.00000E+00  0.23976E+01
  0.39248E+01  0.65210E+01  0.10965E+02  0.00000E+00  0.78102E+00  0.15634E+01
  0.23483E+01  0.31369E+01  0.39313E+01  0.47139E+01  0.55068E+01  0.62747E+01
  0.71015E+01  0.71633E+01  0.71823E+01  0.72330E+01  0.73259E+01  0.72907E+01
  0.71233E+01  0.69121E+01  0.66492E+01  0.65522E+01  0.65282E+01  0.61237E+01
  0.58080E+01  0.49018E+01  0.39757E+01  0.37633E+01  0.41478E+01  0.51908E+01
  0.65878E+01  0.10060E+02  0.13152E+02  0.21105E+02  0.34507E+02  0.57284E+02
  0.00000E+00  0.15136E+01  0.30291E+01  0.45480E+01  0.60721E+01  0.76046E+01
  0.91126E+01  0.10635E+02  0.12105E+02  0.13673E+02  0.13756E+02  0.13753E+02
  0.13795E+02  0.13897E+02  0.13756E+02  0.13367E+02  0.12888E+02  0.12311E+02
  0.12007E+02  0.11816E+02  0.11034E+02  0.10455E+02  0.91139E+01  0.79732E+01
  0.81101E+01  0.93803E+01  0.11971E+02  0.15769E+02  0.23299E+02  0.32555E+02
  0.50991E+02  0.81714E+02  0.13347E+03  0.00000E+00  0.28863E+01  0.57752E+01
  0.86687E+01  0.11569E+02  0.14482E+02  0.17346E+02  0.20229E+02  0.23012E+02
  0.25955E+02  0.26062E+02  0.26004E+02  0.26010E+02  0.26101E+02  0.25739E+02
  0.24920E+02  0.23925E+02  0.22746E+02  0.22013E+02  0.21454E+02  0.19945E+02
  0.18824E+02  0.16663E+02  0.15055E+02  0.15579E+02  0.17978E+02  0.22540E+02
  0.29302E+02  0.41748E+02  0.58175E+02  0.88572E+02  0.13857E+03  0.22189E+03
  0.00000E+00  0.57697E+01  0.11543E+02  0.17323E+02  0.23112E+02  0.28920E+02
  0.34632E+02  0.40370E+02  0.45910E+02  0.51728E+02  0.51866E+02  0.51684E+02
  0.51597E+02  0.51634E+02  0.50816E+02  0.49141E+02  0.47120E+02  0.44752E+02
  0.43152E+02  0.41836E+02  0.38926E+02  0.36770E+02  0.33128E+02  0.30728E+02
  0.32001E+02  0.36450E+02  0.44493E+02  0.56386E+02  0.77104E+02  0.10536E+03
  0.15499E+03  0.23533E+03  0.36738E+03  0.00000E+00  0.11060E+02  0.22126E+02
  0.33199E+02  0.44285E+02  0.55399E+02  0.66331E+02  0.77296E+02  0.87889E+02
  0.98954E+02  0.99117E+02  0.98683E+02  0.98384E+02  0.98265E+02  0.96577E+02
  0.93322E+02  0.89412E+02  0.84851E+02  0.81580E+02  0.78744E+02  0.73199E+02
  0.68987E+02  0.62528E+02  0.58397E+02  0.60301E+02  0.67205E+02  0.79527E+02
  0.97578E+02  0.12811E+03  0.16976E+03  0.24071E+03  0.35358E+03  0.53623E+03
  0.00000E+00  0.22139E+02  0.44284E+02  0.66439E+02  0.88612E+02  0.11083E+03
  0.13269E+03  0.15460E+03  0.17580E+03  0.19783E+03  0.19800E+03  0.19705E+03
  0.19629E+03  0.19580E+03  0.19237E+03  0.18601E+03  0.17839E+03  0.16954E+03
  0.16293E+03  0.15703E+03  0.14634E+03  0.13808E+03  0.12624E+03  0.11878E+03
  0.12164E+03  0.13271E+03  0.15228E+03  0.18066E+03  0.22740E+03  0.29075E+03
  0.39556E+03  0.55898E+03  0.81864E+03  0.00000E+00  0.39616E+02  0.79241E+02
  0.11888E+03  0.15854E+03  0.19826E+03  0.23738E+03  0.27656E+03  0.31453E+03
  0.35383E+03  0.35399E+03  0.35224E+03  0.35077E+03  0.34966E+03  0.34363E+03
  0.33271E+03  0.31964E+03  0.30446E+03  0.29289E+03  0.28236E+03  0.26411E+03
  0.24983E+03  0.23013E+03  0.21774E+03  0.22159E+03  0.23792E+03  0.26675E+03
  0.30819E+03  0.37523E+03  0.46530E+03  0.61112E+03  0.83456E+03  0.11837E+04
  0.00000E+00  0.70715E+02  0.14144E+03  0.21218E+03  0.28294E+03  0.35380E+03
  0.42365E+03  0.49354E+03  0.56140E+03  0.63141E+03  0.63148E+03  0.62833E+03
  0.62556E+03  0.62330E+03  0.61278E+03  0.59403E+03  0.57162E+03  0.54562E+03
  0.52540E+03  0.50670E+03  0.47535E+03  0.45043E+03  0.41702E+03  0.39560E+03
  0.39974E+03  0.42285E+03  0.46416E+03  0.52311E+03  0.61743E+03  0.74247E+03
  0.94142E+03  0.12409E+04  0.17008E+04  0.00000E+00  0.00000E+00  0.00000E+00
  0.00000E+00  0.00000E+00  0.00000E+00  0.00000E+00  0.00000E+00  0.00000E+00
  0.00000E+00  0.00000E+00  0.00000E+00  0.00000E+00  0.00000E+00  0.00000E+00
  0.00000E+00  0.00000E+00  0.00000E+00  0.00000E+00  0.00000E+00  0.00000E+00
  0.00000E+00  0.00000E+00  0.00000E+00  0.00000E+00  0.00000E+00  0.00000E+00
  0.00000E+00  0.00000E+00  0.00000E+00  0.00000E+00  0.00000E+00  0.00000E+00
  0.00000E+00  0.00000E+00  0.00000E+00  0.00000E+00  0.00000E+00  0.00000E+00
  0.00000E+00  0.00000E+00  0.00000E+00  0.00000E+00  0.00000E+00  0.00000E+00
  0.00000E+00  0.92299E-04  0.21850E-03  0.47834E-03  0.11011E-02  0.24476E-02
  0.55307E-02  0.11956E-01  0.45475E-01  0.11725E+00  0.26767E+00  0.58791E+00
  0.12546E+01  0.25691E+01  0.53469E+01  0.10735E+02  0.21911E+02  0.43958E+02
  0.88183E+02  0.17686E+03  0.35461E+03  0.00000E+00  0.00000E+00  0.00000E+00
  0.00000E+00  0.00000E+00  0.00000E+00  0.00000E+00  0.00000E+00  0.00000E+00
  0.00000E+00  0.00000E+00  0.00000E+00  0.00000E+00  0.18754E-03  0.44216E-03
  0.96501E-03  0.22179E-02  0.49197E-02  0.11104E-01  0.23984E-01  0.91050E-01
  0.23479E+00  0.53581E+00  0.11766E+01  0.25103E+01  0.51399E+01  0.10696E+02
  0.21474E+02  0.43828E+02  0.87923E+02  0.17638E+03  0.35373E+03  0.70925E+03
  0.00000E+00  0.00000E+00  0.00000E+00  0.00000E+00  0.00000E+00  0.00000E+00
  0.00000E+00  0.00000E+00  0.00000E+00  0.00000E+00  0.00000E+00  0.00000E+00
  0.00000E+00  0.28678E-03  0.67320E-03  0.14635E-02  0.33526E-02  0.74252E-02
  0.16729E-01  0.36080E-01  0.13686E+00  0.35246E+00  0.80401E+00  0.17650E+01
  0.37650E+01  0.77076E+01  0.16038E+02  0.32196E+02  0.65707E+02  0.13181E+03
  0.26441E+03  0.53027E+03  0.10632E+04  0.00000E+00  0.00000E+00  0.00000E+00
  0.00000E+00  0.00000E+00  0.00000E+00  0.00000E+00  0.00000E+00  0.00000E+00
  0.00000E+00  0.00000E+00  0.00000E+00  0.00000E+00  0.39098E-03  0.91298E-03
  0.19766E-02  0.45124E-02  0.99671E-02  0.22420E-01  0.48279E-01  0.18278E+00
  0.47041E+00  0.10725E+01  0.23536E+01  0.50193E+01  0.10273E+02  0.21374E+02
  0.42904E+02  0.87555E+02  0.17563E+03  0.35230E+03  0.70652E+03  0.14166E+04
  0.00000E+00  0.00000E+00  0.00000E+00  0.00000E+00  0.00000E+00  0.00000E+00
  0.00000E+00  0.00000E+00  0.00000E+00  0.00000E+00  0.00000E+00  0.00000E+00
  0.00000E+00  0.50158E-03  0.11638E-02  0.25071E-02  0.57017E-02  0.12560E-01
  0.28178E-01  0.60589E-01  0.22886E+00  0.58854E+00  0.13411E+01  0.29418E+01
  0.62718E+01  0.12834E+02  0.26697E+02  0.53582E+02  0.10934E+03  0.21931E+03
  0.43991E+03  0.88220E+03  0.17688E+04  0.00000E+00  0.00000E+00  0.00000E+00
  0.00000E+00  0.00000E+00  0.00000E+00  0.00000E+00  0.00000E+00  0.00000E+00
  0.00000E+00  0.00000E+00  0.00000E+00  0.00000E+00  0.61929E-03  0.14272E-02
  0.30564E-02  0.69260E-02  0.15199E-01  0.34024E-01  0.73029E-01  0.27503E+00
  0.70683E+00  0.16097E+01  0.35293E+01  0.75216E+01  0.15387E+02  0.32003E+02
  0.64221E+02  0.13104E+03  0.26282E+03  0.52715E+03  0.10571E+04  0.21196E+04
  0.00000E+00  0.00000E+00  0.00000E+00  0.00000E+00  0.00000E+00  0.00000E+00
  0.00000E+00  0.00000E+00  0.00000E+00  0.00000E+00  0.00000E+00  0.00000E+00
  0.00000E+00  0.74302E-03  0.17019E-02  0.36234E-02  0.81764E-02  0.17882E-01
  0.39926E-01  0.85505E-01  0.32114E+00  0.82437E+00  0.18762E+01  0.41114E+01
  0.87590E+01  0.17912E+02  0.37248E+02  0.74733E+02  0.15248E+03  0.30580E+03
  0.61334E+03  0.12299E+04  0.24660E+04  0.00000E+00  0.00000E+00  0.00000E+00
  0.00000E+00  0.00000E+00  0.00000E+00  0.00000E+00  0.00000E+00  0.00000E+00
  0.00000E+00  0.00000E+00  0.00000E+00  0.00000E+00  0.86990E-03  0.19832E-02
  0.41990E-02  0.94416E-02  0.20574E-01  0.45833E-01  0.97939E-01  0.36664E+00
  0.94040E+00  0.21390E+01  0.46850E+01  0.99770E+01  0.20394E+02  0.42405E+02
  0.85060E+02  0.17354E+03  0.34801E+03  0.69797E+03  0.13997E+04  0.28063E+04
  0.00000E+00  0.00000E+00  0.00000E+00  0.00000E+00  0.00000E+00  0.00000E+00
  0.00000E+00  0.00000E+00  0.00000E+00  0.00000E+00  0.00000E+00  0.00000E+00
  0.00000E+00  0.98853E-03  0.22550E-02  0.47569E-02  0.10679E-01  0.23207E-01
  0.51612E-01  0.11008E+00  0.41078E+00  0.10532E+01  0.23945E+01  0.52425E+01
  0.11160E+02  0.22803E+02  0.47408E+02  0.95072E+02  0.19396E+03  0.38893E+03
  0.78003E+03  0.15642E+04  0.31364E+04  0.00000E+00  0.00000E+00  0.00000E+00
  0.00000E+00  0.00000E+00  0.00000E+00  0.00000E+00  0.00000E+00  0.00000E+00
  0.00000E+00  0.00000E+00  0.00000E+00  0.00000E+00  0.10674E-02  0.24686E-02
  0.52215E-02  0.11772E-01  0.25573E-01  0.56914E-01  0.12132E+00  0.45170E+00
  0.11583E+01  0.26339E+01  0.57661E+01  0.12273E+02  0.25065E+02  0.52111E+02
  0.10448E+03  0.21316E+03  0.42741E+03  0.85721E+03  0.17191E+04  0.34473E+04
  0.00000E+00  0.00000E+00  0.00000E+00  0.00000E+00  0.00000E+00  0.00000E+00
  0.00000E+00  0.00000E+00  0.00000E+00  0.00000E+00  0.00000E+00  0.00000E+00
  0.00000E+00  0.10402E-02  0.25301E-02  0.54550E-02  0.12504E-01  0.27333E-01
  0.61165E-01  0.13064E+00  0.48649E+00  0.12497E+01  0.28451E+01  0.62313E+01
  0.13265E+02  0.27081E+02  0.56318E+02  0.11288E+03  0.23035E+03  0.46189E+03
  0.92643E+03  0.18582E+04  0.37268E+04  0.00000E+00  0.00000E+00  0.00000E+00
  0.00000E+00  0.00000E+00  0.00000E+00  0.00000E+00  0.00000E+00  0.00000E+00
  0.00000E+00  0.00000E+00  0.00000E+00  0.00000E+00  0.72176E-03  0.21741E-02
  0.50689E-02  0.12291E-01  0.27539E-01  0.62820E-01  0.13546E+00  0.50809E+00
  0.13123E+01  0.29989E+01  0.65812E+01  0.14025E+02  0.28630E+02  0.59589E+02
  0.11941E+03  0.24383E+03  0.48898E+03  0.98100E+03  0.19682E+04  0.39489E+04
  0.00000E+00  0.00000E+00  0.00000E+00  0.00000E+00  0.00000E+00  0.00000E+00
  0.00000E+00  0.00000E+00  0.00000E+00  0.00000E+00  0.00000E+00  0.00000E+00
  0.00000E+00  0.21189E-03  0.97232E-03  0.34861E-02  0.10331E-01  0.25012E-01
  0.60073E-01  0.13293E+00  0.50907E+00  0.13314E+01  0.30672E+01  0.67611E+01
  0.14446E+02  0.29499E+02  0.61505E+02  0.12325E+03  0.25194E+03  0.50542E+03
  0.10145E+04  0.20365E+04  0.40883E+04  0.00000E+00  0.00000E+00  0.00000E+00
  0.00000E+00  0.00000E+00  0.00000E+00  0.00000E+00  0.00000E+00  0.00000E+00
  0.00000E+00  0.00000E+00  0.00000E+00  0.00000E+00  0.22416E-02  0.16582E-02
  0.00000E+00  0.57565E-02  0.18631E-01  0.51476E-01  0.12109E+00  0.48589E+00
  0.13004E+01  0.30391E+01  0.67515E+01  0.14490E+02  0.29617E+02  0.61929E+02
  0.12411E+03  0.25416E+03  0.51018E+03  0.10248E+04  0.20590E+04  0.41372E+04
  0.00000E+00  0.00000E+00  0.00000E+00  0.00000E+00  0.00000E+00  0.00000E+00
  0.00000E+00  0.00000E+00  0.00000E+00  0.00000E+00  0.00000E+00  0.00000E+00
  0.00000E+00  0.00000E+00  0.78049E-02  0.79516E-02  0.47439E-02  0.36926E-02
  0.29517E-01  0.86669E-01  0.40331E+00  0.10966E+01  0.26437E+01  0.59694E+01
  0.12931E+02  0.26495E+02  0.55708E+02  0.11171E+03  0.22952E+03  0.46127E+03
  0.92785E+03  0.18670E+04  0.37574E+04  0.00000E+00  0.51654E-03  0.10485E-02
  0.16006E-02  0.21834E-02  0.28048E-02  0.34212E-02  0.41677E-02  0.49272E-02
  0.60030E-02  0.61347E-02  0.00000E+00  0.00000E+00  0.00000E+00  0.00000E+00
  0.20547E-01  0.20634E-01  0.17676E-01  0.00000E+00  0.43125E-01  0.30158E+00
  0.88564E+00  0.22426E+01  0.51843E+01  0.11373E+02  0.23379E+02  0.49502E+02
  0.99331E+02  0.20491E+03  0.41243E+03  0.83100E+03  0.16752E+04  0.33778E+04
  0.00000E+00  0.16234E-02  0.32837E-02  0.49916E-02  0.67697E-02  0.86430E-02
  0.10494E-01  0.12650E-01  0.14833E-01  0.17759E-01  0.21242E-01  0.23805E-01
  0.24824E-01  0.00000E+00  0.00000E+00  0.00000E+00  0.45215E-01  0.48944E-01
  0.40437E-01  0.12381E-01  0.18068E+00  0.66336E+00  0.18331E+01  0.43956E+01
  0.98183E+01  0.20272E+02  0.43322E+02  0.86996E+02  0.18039E+03  0.36370E+03
  0.73434E+03  0.14837E+04  0.29987E+04  0.00000E+00  0.41463E-02  0.83637E-02
  0.12674E-01  0.17124E-01  0.21749E-01  0.26338E-01  0.31523E-01  0.36773E-01
  0.43452E-01  0.50260E-01  0.55760E-01  0.62207E-01  0.68040E-01  0.73387E-01
  0.00000E+00  0.00000E+00  0.11600E+00  0.12739E+00  0.13028E+00  0.67000E-01
  0.23813E+00  0.10758E+01  0.29843E+01  0.71141E+01  0.14993E+02  0.32989E+02
  0.66629E+02  0.14025E+03  0.28446E+03  0.57786E+03  0.11747E+04  0.23884E+04
  0.00000E+00  0.96278E-02  0.19381E-01  0.29291E-01  0.39434E-01  0.49885E-01
  0.60224E-01  0.71578E-01  0.82959E-01  0.96859E-01  0.10808E+00  0.11673E+00
  0.12706E+00  0.13700E+00  0.15103E+00  0.17085E+00  0.19229E+00  0.00000E+00
  0.24793E+00  0.28281E+00  0.34542E+00  0.19748E+00  0.34797E+00  0.16826E+01
  0.46796E+01  0.10295E+02  0.23871E+02  0.48714E+02  0.10504E+03  0.21503E+03
  0.44085E+03  0.90419E+03  0.18544E+04  0.00000E+00  0.21122E-01  0.42453E-01
  0.64025E-01  0.86004E-01  0.10848E+00  0.13065E+00  0.15449E+00  0.17822E+00
  0.20618E+00  0.22407E+00  0.23742E+00  0.25306E+00  0.26844E+00  0.29016E+00
  0.32100E+00  0.35613E+00  0.40723E+00  0.00000E+00  0.53289E+00  0.76486E+00
  0.81886E+00  0.63671E+00  0.00000E+00  0.16422E+01  0.45813E+01  0.12987E+02
  0.27602E+02  0.63921E+02  0.13447E+03  0.28258E+03  0.59276E+03  0.12408E+04
  0.00000E+00  0.44389E-01  0.89049E-01  0.13417E+00  0.17990E+00  0.22641E+00
  0.27213E+00  0.32061E+00  0.36846E+00  0.42319E+00  0.45011E+00  0.46885E+00
  0.49258E+00  0.51364E+00  0.54492E+00  0.59059E+00  0.64324E+00  0.71977E+00
  0.81223E+00  0.00000E+00  0.13537E+01  0.16446E+01  0.18596E+01  0.19701E+01
  0.17536E+01  0.16027E+01  0.14948E+01  0.56632E+01  0.21703E+02  0.52410E+02
  0.12226E+03  0.27850E+03  0.62343E+03  0.00000E+00  0.93346E-01  0.18718E+00
  0.28176E+00  0.37719E+00  0.47382E+00  0.56872E+00  0.66801E+00  0.76528E+00
  0.87399E+00  0.91159E+00  0.93468E+00  0.96591E+00  0.99347E+00  0.10379E+01
  0.11012E+01  0.11757E+01  0.12860E+01  0.14171E+01  0.16080E+01  0.22680E+01
  0.28278E+01  0.34895E+01  0.44213E+01  0.57387E+01  0.85488E+01  0.10973E+02
  0.17589E+02  0.22255E+02  0.32020E+02  0.41287E+02  0.40158E+02  0.00000E+00
  0.00000E+00  0.20338E+00  0.40753E+00  0.61271E+00  0.81938E+00  0.10281E+01
  0.12326E+01  0.14441E+01  0.16503E+01  0.18762E+01  0.18996E+01  0.19130E+01
  0.19442E+01  0.19719E+01  0.20246E+01  0.21113E+01  0.22076E+01  0.23600E+01
  0.25416E+01  0.28140E+01  0.38232E+01  0.46668E+01  0.58507E+01  0.77212E+01
  0.10748E+02  0.16801E+02  0.25100E+02  0.43056E+02  0.69136E+02  0.12041E+03
  0.21023E+03  0.36618E+03  0.63349E+03  0.00000E+00  0.40042E+00  0.80197E+00
  0.12050E+01  0.16102E+01  0.20184E+01  0.24181E+01  0.28283E+01  0.32270E+01
  0.36570E+01  0.36878E+01  0.36979E+01  0.37349E+01  0.37611E+01  0.38239E+01
  0.39362E+01  0.40555E+01  0.42562E+01  0.44939E+01  0.48642E+01  0.62786E+01
  0.75041E+01  0.93151E+01  0.12293E+02  0.17283E+02  0.26983E+02  0.41680E+02
  0.71779E+02  0.12033E+03  0.21465E+03  0.38714E+03  0.70312E+03  0.12820E+04
  0.00000E+00  0.78139E+00  0.15644E+01  0.23494E+01  0.31375E+01  0.39300E+01
  0.47050E+01  0.54957E+01  0.62613E+01  0.70775E+01  0.71136E+01  0.71068E+01
  0.71402E+01  0.71448E+01  0.72017E+01  0.73288E+01  0.74486E+01  0.76824E+01
  0.79505E+01  0.84019E+01  0.10234E+02  0.11820E+02  0.14225E+02  0.18260E+02
  0.25092E+02  0.38167E+02  0.58440E+02  0.98930E+02  0.16593E+03  0.29490E+03
  0.53265E+03  0.97312E+03  0.17918E+04  0.00000E+00  0.15141E+01  0.30305E+01
  0.45496E+01  0.60729E+01  0.76026E+01  0.90977E+01  0.10616E+02  0.12083E+02
  0.13633E+02  0.13670E+02  0.13620E+02  0.13632E+02  0.13578E+02  0.13599E+02
  0.13719E+02  0.13799E+02  0.14038E+02  0.14295E+02  0.14806E+02  0.17126E+02
  0.19123E+02  0.22237E+02  0.27578E+02  0.36677E+02  0.53868E+02  0.80659E+02
  0.13305E+03  0.22046E+03  0.38695E+03  0.69395E+03  0.12644E+04  0.23305E+04
  0.00000E+00  0.28870E+01  0.57771E+01  0.86708E+01  0.11570E+02  0.14479E+02
  0.17321E+02  0.20199E+02  0.22976E+02  0.25887E+02  0.25912E+02  0.25773E+02
  0.25725E+02  0.25541E+02  0.25463E+02  0.25526E+02  0.25477E+02  0.25653E+02
  0.25800E+02  0.26301E+02  0.29133E+02  0.31552E+02  0.35483E+02  0.42434E+02
  0.54363E+02  0.76685E+02  0.11130E+03  0.17770E+03  0.28828E+03  0.49634E+03
  0.87820E+03  0.15865E+04  0.29108E+04  0.00000E+00  0.57707E+01  0.11546E+02
  0.17326E+02  0.23114E+02  0.28915E+02  0.34589E+02  0.40318E+02  0.45848E+02
  0.51608E+02  0.51597E+02  0.51267E+02  0.51081E+02  0.50620E+02  0.50315E+02
  0.50219E+02  0.49865E+02  0.49845E+02  0.49691E+02  0.50062E+02  0.53554E+02
  0.56546E+02  0.61736E+02  0.71307E+02  0.87891E+02  0.11859E+03  0.16585E+03
  0.25446E+03  0.40114E+03  0.67281E+03  0.11674E+04  0.20803E+04  0.37837E+04
  0.00000E+00  0.11062E+02  0.22129E+02  0.33203E+02  0.44287E+02  0.55390E+02
  0.66258E+02  0.77208E+02  0.87785E+02  0.98748E+02  0.98646E+02  0.97947E+02
  0.97474E+02  0.96468E+02  0.95688E+02  0.95206E+02  0.94188E+02  0.93647E+02
  0.92751E+02  0.92607E+02  0.96385E+02  0.99614E+02  0.10592E+03  0.11841E+03
  0.14049E+03  0.18132E+03  0.24326E+03  0.35730E+03  0.54351E+03  0.88260E+03
  0.14924E+04  0.26078E+04  0.46763E+04  0.00000E+00  0.22140E+02  0.44289E+02
  0.66444E+02  0.88614E+02  0.11081E+03  0.13256E+03  0.15445E+03  0.17562E+03
  0.19746E+03  0.19715E+03  0.19571E+03  0.19463E+03  0.19252E+03  0.19075E+03
  0.18941E+03  0.18698E+03  0.18527E+03  0.18274E+03  0.18133E+03  0.18485E+03
  0.18790E+03  0.19551E+03  0.21238E+03  0.24311E+03  0.30011E+03  0.38529E+03
  0.53916E+03  0.78613E+03  0.12269E+04  0.20070E+04  0.34157E+04  0.60038E+04
  0.00000E+00  0.39619E+02  0.79247E+02  0.11888E+03  0.15854E+03  0.19824E+03
  0.23718E+03  0.27631E+03  0.31424E+03  0.35324E+03  0.35259E+03  0.35004E+03
  0.34804E+03  0.34426E+03  0.34096E+03  0.33828E+03  0.33366E+03  0.33005E+03
  0.32491E+03  0.32137E+03  0.32360E+03  0.32566E+03  0.33417E+03  0.35591E+03
  0.39695E+03  0.47366E+03  0.58686E+03  0.78840E+03  0.11068E+04  0.16649E+04
  0.26373E+04  0.43704E+04  0.75215E+04  0.00000E+00  0.70718E+02  0.14145E+03
  0.21218E+03  0.28294E+03  0.35377E+03  0.42331E+03  0.49314E+03  0.56093E+03
  0.63044E+03  0.62918E+03  0.62470E+03  0.62105E+03  0.61437E+03  0.60835E+03
  0.60319E+03  0.59464E+03  0.58751E+03  0.57757E+03  0.56989E+03  0.56825E+03
  0.56715E+03  0.57513E+03  0.60207E+03  0.65595E+03  0.75859E+03  0.90805E+03
  0.11715E+04  0.15803E+04  0.22839E+04  0.34881E+04  0.56012E+04  0.93931E+04
  0.00000E+00  0.00000E+00  0.00000E+00  0.00000E+00  0.00000E+00  0.00000E+00
  0.00000E+00  0.00000E+00  0.00000E+00  0.00000E+00  0.00000E+00  0.00000E+00
  0.00000E+00  0.00000E+00  0.00000E+00  0.00000E+00  0.00000E+00  0.00000E+00
  0.00000E+00  0.00000E+00  0.00000E+00  0.00000E+00  0.00000E+00  0.00000E+00
  0.00000E+00  0.00000E+00  0.00000E+00  0.00000E+00  0.00000E+00  0.00000E+00
  0.00000E+00  0.00000E+00  0.00000E+00  0.00000E+00  0.00000E+00  0.00000E+00
  0.00000E+00  0.00000E+00  0.00000E+00  0.00000E+00  0.00000E+00  0.00000E+00
  0.00000E+00  0.43786E-06  0.10790E-04  0.41401E-04  0.97112E-04  0.20647E-03
  0.41279E-03  0.81700E-03  0.15659E-02  0.28121E-02  0.46448E-02  0.90307E-02
  0.15529E-01  0.26311E-01  0.44082E-01  0.72606E-01  0.12135E+00  0.19670E+00
  0.31889E+00  0.51705E+00  0.83830E+00  0.13498E+01  0.21660E+01  0.34759E+01
  0.00000E+00  0.00000E+00  0.00000E+00  0.00000E+00  0.00000E+00  0.00000E+00
  0.00000E+00  0.00000E+00  0.00000E+00  0.00000E+00  0.89003E-06  0.22745E-04
  0.85813E-04  0.19999E-03  0.42313E-03  0.84203E-03  0.16607E-02  0.31716E-02
  0.56823E-02  0.93664E-02  0.18186E-01  0.31229E-01  0.52854E-01  0.88476E-01
  0.14562E+00  0.24325E+00  0.39412E+00  0.63869E+00  0.10353E+01  0.16782E+01
  0.27015E+01  0.43345E+01  0.69551E+01  0.00000E+00  0.00000E+00  0.00000E+00
  0.00000E+00  0.00000E+00  0.00000E+00  0.00000E+00  0.00000E+00  0.00000E+00
  0.00000E+00  0.13315E-05  0.36312E-04  0.13450E-03  0.31101E-03  0.65337E-03
  0.12936E-02  0.25392E-02  0.48339E-02  0.86336E-02  0.14192E-01  0.27495E-01
  0.47132E-01  0.79664E-01  0.13321E+00  0.21905E+00  0.36565E+00  0.59211E+00
  0.95912E+00  0.15541E+01  0.25185E+01  0.40533E+01  0.65023E+01  0.10432E+02
  0.00000E+00  0.00000E+00  0.00000E+00  0.00000E+00  0.00000E+00  0.00000E+00
  0.00000E+00  0.00000E+00  0.00000E+00  0.00000E+00  0.16948E-05  0.52157E-04
  0.18900E-03  0.43333E-03  0.90299E-03  0.17764E-02  0.34677E-02  0.65704E-02
  0.11690E-01  0.19163E-01  0.37026E-01  0.63336E-01  0.10687E+00  0.17846E+00
  0.29314E+00  0.48890E+00  0.79112E+00  0.12808E+01  0.20744E+01  0.33603E+01
  0.54067E+01  0.86713E+01  0.13909E+02  0.00000E+00  0.00000E+00  0.00000E+00
  0.00000E+00  0.00000E+00  0.00000E+00  0.00000E+00  0.00000E+00  0.00000E+00
  0.00000E+00  0.17836E-05  0.71102E-04  0.25151E-03  0.57114E-03  0.11792E-02
  0.23019E-02  0.44643E-02  0.84134E-02  0.14899E-01  0.24327E-01  0.46856E-01
  0.79938E-01  0.13461E+00  0.22439E+00  0.36807E+00  0.61318E+00  0.99134E+00
  0.16038E+01  0.25960E+01  0.42035E+01  0.67609E+01  0.10840E+02  0.17384E+02
  0.00000E+00  0.00000E+00  0.00000E+00  0.00000E+00  0.00000E+00  0.00000E+00
  0.00000E+00  0.00000E+00  0.00000E+00  0.00000E+00  0.11684E-05  0.94155E-04
  0.32472E-03  0.72961E-03  0.14915E-02  0.28850E-02  0.55537E-02  0.10393E-01
  0.18301E-01  0.29748E-01  0.57092E-01  0.97081E-01  0.16306E+00  0.27124E+00
  0.44414E+00  0.73892E+00  0.11933E+01  0.19287E+01  0.31198E+01  0.50488E+01
  0.81168E+01  0.13009E+02  0.20857E+02  0.00000E+00  0.00000E+00  0.00000E+00
  0.00000E+00  0.00000E+00  0.00000E+00  0.00000E+00  0.00000E+00  0.00000E+00
  0.00000E+00  0.17231E-05  0.12230E-03  0.41172E-03  0.91589E-03  0.18512E-02
  0.35438E-02  0.67630E-02  0.12560E-01  0.21966E-01  0.35503E-01  0.67820E-01
  0.11486E+00  0.19232E+00  0.31906E+00  0.52133E+00  0.86587E+00  0.13963E+01
  0.22544E+01  0.36434E+01  0.58919E+01  0.94668E+01  0.15166E+02  0.24306E+02
  0.00000E+00  0.00000E+00  0.00000E+00  0.00000E+00  0.00000E+00  0.00000E+00
  0.00000E+00  0.00000E+00  0.00000E+00  0.00000E+00  0.10177E-04  0.15608E-03
  0.51564E-03  0.11374E-02  0.22724E-02  0.43023E-02  0.81295E-02  0.14965E-01
  0.25957E-01  0.41681E-01  0.79183E-01  0.13346E+00  0.22261E+00  0.36811E+00
  0.59988E+00  0.99428E+00  0.16006E+01  0.25806E+01  0.41659E+01  0.67311E+01
  0.10807E+02  0.17304E+02  0.27719E+02  0.00000E+00  0.00000E+00  0.00000E+00
  0.00000E+00  0.00000E+00  0.00000E+00  0.00000E+00  0.00000E+00  0.00000E+00
  0.00000E+00  0.29964E-04  0.19418E-03  0.63769E-03  0.14018E-02  0.27709E-02
  0.51865E-02  0.96968E-02  0.17671E-01  0.30369E-01  0.48387E-01  0.91340E-01
  0.15305E+00  0.25413E+00  0.41857E+00  0.67987E+00  0.11240E+01  0.18055E+01
  0.29059E+01  0.46846E+01  0.75609E+01  0.12129E+02  0.19405E+02  0.31068E+02
  0.00000E+00  0.00000E+00  0.00000E+00  0.00000E+00  0.00000E+00  0.00000E+00
  0.00000E+00  0.00000E+00  0.00000E+00  0.00000E+00  0.75332E-04  0.22796E-03
  0.76964E-03  0.17056E-02  0.33500E-02  0.62060E-02  0.11487E-01  0.20715E-01
  0.35227E-01  0.55653E-01  0.10428E+00  0.17356E+00  0.28666E+00  0.46994E+00
  0.76030E+00  0.12533E+01  0.20077E+01  0.32245E+01  0.51895E+01  0.83647E+01
  0.13404E+02  0.21425E+02  0.34277E+02  0.00000E+00  0.00000E+00  0.00000E+00
  0.00000E+00  0.00000E+00  0.00000E+00  0.00000E+00  0.00000E+00  0.00000E+00
  0.00000E+00  0.17875E-03  0.23396E-03  0.88798E-03  0.20354E-02  0.40056E-02
  0.73708E-02  0.13529E-01  0.24149E-01  0.40607E-01  0.63548E-01  0.11810E+00
  0.19502E+00  0.32010E+00  0.52183E+00  0.84020E+00  0.13800E+01  0.22035E+01
  0.35295E+01  0.56686E+01  0.91220E+01  0.14597E+02  0.23306E+02  0.37252E+02
  0.00000E+00  0.00000E+00  0.00000E+00  0.00000E+00  0.00000E+00  0.00000E+00
  0.00000E+00  0.00000E+00  0.00000E+00  0.00000E+00  0.42303E-03  0.13392E-03
  0.89787E-03  0.22952E-02  0.46354E-02  0.85636E-02  0.15688E-01  0.27810E-01
  0.46239E-01  0.71704E-01  0.13217E+00  0.21642E+00  0.35281E+00  0.57151E+00
  0.91504E+00  0.14969E+01  0.23805E+01  0.38009E+01  0.60891E+01  0.97795E+01
  0.15622E+02  0.24908E+02  0.39768E+02  0.00000E+00  0.00000E+00  0.00000E+00
  0.00000E+00  0.00000E+00  0.00000E+00  0.00000E+00  0.00000E+00  0.00000E+00
  0.00000E+00  0.98319E-03  0.26202E-03  0.60397E-03  0.22985E-02  0.50564E-02
  0.95998E-02  0.17790E-01  0.31513E-01  0.51902E-01  0.79858E-01  0.14607E+00
  0.23704E+00  0.38360E+00  0.61692E+00  0.98116E+00  0.15977E+01  0.25282E+01
  0.40209E+01  0.64217E+01  0.10289E+02  0.16401E+02  0.26102E+02  0.41615E+02
  0.00000E+00  0.00000E+00  0.00000E+00  0.00000E+00  0.00000E+00  0.00000E+00
  0.00000E+00  0.00000E+00  0.00000E+00  0.00000E+00  0.21660E-02  0.12541E-02
  0.38908E-03  0.17094E-02  0.49423E-02  0.10158E-01  0.19533E-01  0.34994E-01
  0.57287E-01  0.87728E-01  0.15946E+00  0.25647E+00  0.41195E+00  0.65723E+00
  0.10373E+01  0.16803E+01  0.26431E+01  0.41836E+01  0.66566E+01  0.10634E+02
  0.16907E+02  0.26846E+02  0.42724E+02  0.00000E+00  0.00000E+00  0.00000E+00
  0.00000E+00  0.00000E+00  0.00000E+00  0.00000E+00  0.00000E+00  0.00000E+00
  0.00000E+00  0.00000E+00  0.00000E+00  0.33649E-02  0.70793E-03  0.31177E-02
  0.89195E-02  0.19276E-01  0.35858E-01  0.58264E-01  0.91649E-01  0.15903E+00
  0.25378E+00  0.40476E+00  0.63998E+00  0.10005E+01  0.16114E+01  0.25148E+01
  0.39555E+01  0.62625E+01  0.99668E+01  0.15788E+02  0.24991E+02  0.39673E+02
  0.00000E+00  0.42606E-03  0.86714E-03  0.13294E-02  0.18208E-02  0.23528E-02
  0.29456E-02  0.00000E+00  0.00000E+00  0.00000E+00  0.00000E+00  0.00000E+00
  0.89124E-02  0.59268E-02  0.12551E-02  0.54850E-02  0.17201E-01  0.35305E-01
  0.58101E-01  0.94054E-01  0.15957E+00  0.25300E+00  0.40077E+00  0.62737E+00
  0.97003E+00  0.15512E+01  0.23977E+01  0.37418E+01  0.58870E+01  0.93233E+01
  0.14701E+02  0.23174E+02  0.36671E+02  0.00000E+00  0.20597E-02  0.41736E-02
  0.63650E-02  0.86639E-02  0.11108E-01  0.13771E-01  0.15220E-01  0.16289E-01
  0.14649E-01  0.00000E+00  0.00000E+00  0.00000E+00  0.15698E-01  0.10494E-01
  0.22152E-02  0.11935E-01  0.32610E-01  0.56467E-01  0.95837E-01  0.16181E+00
  0.25560E+00  0.40241E+00  0.62288E+00  0.95028E+00  0.15064E+01  0.22998E+01
  0.35526E+01  0.55431E+01  0.87206E+01  0.13665E+02  0.21423E+02  0.33752E+02
  0.00000E+00  0.53195E-02  0.10746E-01  0.16328E-01  0.22114E-01  0.28185E-01
  0.34684E-01  0.37913E-01  0.41002E-01  0.43964E-01  0.47033E-01  0.42074E-01
  0.00000E+00  0.00000E+00  0.34606E-01  0.27321E-01  0.11440E-01  0.12205E-01
  0.35115E-01  0.74706E-01  0.13784E+00  0.22539E+00  0.36172E+00  0.56090E+00
  0.84950E+00  0.13460E+01  0.20311E+01  0.31077E+01  0.48120E+01  0.75259E+01
  0.11714E+02  0.18250E+02  0.28610E+02  0.00000E+00  0.12259E-01  0.24710E-01
