  0.00000E+00  0.00000E+00  0.00000E+00  0.00000E+00  0.00000E+00  0.00000E+00
  0.00000E+00  0.00000E+00  0.00000E+00  0.00000E+00  0.00000E+00  0.00000E+00
  0.00000E+00  0.00000E+00  0.00000E+00  0.00000E+00  0.00000E+00  0.00000E+00
  0.00000E+00  0.00000E+00  0.00000E+00  0.00000E+00  0.00000E+00  0.00000E+00
  0.00000E+00  0.00000E+00  0.00000E+00  0.00000E+00  0.00000E+00  0.00000E+00
  0.00000E+00  0.00000E+00  0.00000E+00  0.00000E+00  0.00000E+00  0.00000E+00
  0.00000E+00  0.00000E+00  0.00000E+00  0.70729E-08  0.12885E-06  0.44016E-06
  0.51621E-06  0.00000E+00  0.00000E+00  0.00000E+00  0.12243E-03  0.30911E-03
  0.70868E-03  0.15705E-02  0.33680E-02  0.70123E-02  0.14088E-01  0.29625E-01
  0.61549E-01  0.12185E+00  0.24445E+00  0.48048E+00  0.89051E+00  0.16750E+01
  0.30735E+01  0.55369E+01  0.95987E+01  0.16338E+02  0.26505E+02  0.42052E+02
  0.00000E+00  0.00000E+00  0.00000E+00  0.00000E+00  0.00000E+00  0.00000E+00
  0.15720E-07  0.28482E-06  0.96394E-06  0.11172E-05  0.00000E+00  0.00000E+00
  0.00000E+00  0.25441E-03  0.63771E-03  0.14542E-02  0.32054E-02  0.68465E-02
  0.14210E-01  0.28473E-01  0.59750E-01  0.12393E+00  0.24494E+00  0.49085E+00
  0.96395E+00  0.17853E+01  0.33563E+01  0.61557E+01  0.11086E+02  0.19213E+02
  0.32694E+02  0.53032E+02  0.84126E+02  0.00000E+00  0.00000E+00  0.00000E+00
  0.00000E+00  0.00000E+00  0.00000E+00  0.25942E-07  0.47331E-06  0.15957E-05
  0.18327E-05  0.00000E+00  0.00000E+00  0.00000E+00  0.39989E-03  0.99409E-03
  0.22492E-02  0.49309E-02  0.10483E-01  0.21671E-01  0.43271E-01  0.90586E-01
  0.18740E+00  0.37002E+00  0.74050E+00  0.14527E+01  0.26881E+01  0.50500E+01
  0.92570E+01  0.16664E+02  0.28869E+02  0.49113E+02  0.79646E+02  0.12632E+03
  0.00000E+00  0.00000E+00  0.00000E+00  0.00000E+00  0.00000E+00  0.00000E+00
  0.36312E-07  0.68849E-06  0.23474E-05  0.26902E-05  0.00000E+00  0.00000E+00
  0.00000E+00  0.56347E-03  0.13882E-02  0.31149E-02  0.67803E-02  0.14327E-01
  0.29474E-01  0.58632E-01  0.12233E+00  0.25253E+00  0.49740E+00  0.99374E+00
  0.19468E+01  0.35987E+01  0.67548E+01  0.12374E+02  0.22261E+02  0.38551E+02
  0.65561E+02  0.10629E+03  0.16854E+03  0.00000E+00  0.00000E+00  0.00000E+00
  0.00000E+00  0.00000E+00  0.00000E+00  0.42979E-07  0.90751E-06  0.32156E-05
  0.37197E-05  0.00000E+00  0.00000E+00  0.00000E+00  0.75256E-03  0.18346E-02
  0.40771E-02  0.88031E-02  0.18469E-01  0.37772E-01  0.74766E-01  0.15540E+00
  0.31970E+00  0.62811E+00  0.12523E+01  0.24493E+01  0.45213E+01  0.84776E+01
  0.15516E+02  0.27896E+02  0.48282E+02  0.82075E+02  0.13302E+03  0.21086E+03
  0.00000E+00  0.00000E+00  0.00000E+00  0.00000E+00  0.00000E+00  0.00000E+00
  0.32917E-07  0.10297E-05  0.40806E-05  0.48977E-05  0.00000E+00  0.00000E+00
  0.00000E+00  0.97551E-03  0.23512E-02  0.51700E-02  0.11056E-01  0.23002E-01
  0.46716E-01  0.91942E-01  0.19017E+00  0.38983E+00  0.76333E+00  0.15180E+01
  0.29629E+01  0.54603E+01  0.10225E+02  0.18694E+02  0.33580E+02  0.58081E+02
  0.98677E+02  0.15985E+03  0.25331E+03  0.00000E+00  0.00000E+00  0.00000E+00
  0.00000E+00  0.00000E+00  0.00000E+00  0.28594E-07  0.77226E-06  0.45490E-05
  0.60690E-05  0.00000E+00  0.00000E+00  0.00000E+00  0.12425E-02  0.29627E-02
  0.64387E-02  0.13622E-01  0.28076E-01  0.56553E-01  0.11052E+00  0.22733E+00
  0.46372E+00  0.90472E+00  0.17936E+01  0.34919E+01  0.64220E+01  0.12006E+02
  0.21921E+02  0.39337E+02  0.67979E+02  0.11542E+03  0.18686E+03  0.29599E+03
  0.00000E+00  0.00000E+00  0.00000E+00  0.00000E+00  0.00000E+00  0.00000E+00
  0.24434E-06  0.73830E-06  0.32976E-05  0.65772E-05  0.00000E+00  0.00000E+00
  0.00000E+00  0.15616E-02  0.36924E-02  0.79314E-02  0.16594E-01  0.33848E-01
  0.67533E-01  0.13092E+00  0.26749E+00  0.54274E+00  0.10538E+01  0.20813E+01
  0.40396E+01  0.74105E+01  0.13826E+02  0.25204E+02  0.45169E+02  0.77975E+02
  0.13227E+03  0.21401E+03  0.33880E+03  0.00000E+00  0.00000E+00  0.00000E+00
  0.00000E+00  0.00000E+00  0.00000E+00  0.87102E-06  0.56884E-05  0.30426E-05
  0.47021E-05  0.00000E+00  0.00000E+00  0.00000E+00  0.19347E-02  0.45630E-02
  0.97083E-02  0.20089E-01  0.40523E-01  0.80033E-01  0.15372E+00  0.31171E+00
  0.62828E+00  0.12131E+01  0.23853E+01  0.46125E+01  0.84354E+01  0.15700E+02
  0.28563E+02  0.51106E+02  0.88110E+02  0.14931E+03  0.24137E+03  0.38183E+03
  0.00000E+00  0.00000E+00  0.00000E+00  0.00000E+00  0.00000E+00  0.00000E+00
  0.26330E-05  0.20270E-04  0.24149E-04  0.46938E-05  0.00000E+00  0.00000E+00
  0.00000E+00  0.23294E-02  0.55620E-02  0.11788E-01  0.24188E-01  0.48296E-01
  0.94368E-01  0.17945E+00  0.36086E+00  0.72217E+00  0.13853E+01  0.27096E+01
  0.52168E+01  0.95053E+01  0.17639E+02  0.32014E+02  0.57171E+02  0.98410E+02
  0.16655E+03  0.26894E+03  0.42508E+03  0.00000E+00  0.00000E+00  0.00000E+00
  0.00000E+00  0.00000E+00  0.00000E+00  0.70729E-05  0.57461E-04  0.79973E-04
  0.31965E-04  0.00000E+00  0.00000E+00  0.00000E+00  0.26836E-02  0.66614E-02
  0.14202E-01  0.29031E-01  0.57462E-01  0.11113E+00  0.20906E+00  0.41667E+00
  0.82696E+00  0.15747E+01  0.30613E+01  0.58636E+01  0.10636E+02  0.19668E+02
  0.35593E+02  0.63412E+02  0.10894E+03  0.18408E+03  0.29685E+03  0.46866E+03
  0.00000E+00  0.00000E+00  0.00000E+00  0.00000E+00  0.00000E+00  0.00000E+00
  0.17728E-04  0.14685E-03  0.21573E-03  0.10065E-03  0.00000E+00  0.00000E+00
  0.00000E+00  0.28280E-02  0.77282E-02  0.16890E-01  0.34696E-01  0.68336E-01
  0.13092E+00  0.24365E+00  0.48104E+00  0.94628E+00  0.17863E+01  0.34482E+01
  0.65646E+01  0.11844E+02  0.21808E+02  0.39327E+02  0.69864E+02  0.11973E+03
  0.20192E+03  0.32508E+03  0.51252E+03  0.00000E+00  0.00000E+00  0.00000E+00
  0.00000E+00  0.00000E+00  0.00000E+00  0.45755E-04  0.38269E-03  0.57731E-03
  0.28801E-03  0.00000E+00  0.00000E+00  0.00000E+00  0.19844E-02  0.79049E-02
  0.18924E-01  0.40236E-01  0.79953E-01  0.15284E+00  0.28226E+00  0.55337E+00
  0.10797E+01  0.20202E+01  0.38714E+01  0.73221E+01  0.13131E+02  0.24061E+02
  0.43214E+02  0.76512E+02  0.13075E+03  0.21999E+03  0.35344E+03  0.55626E+03
  0.00000E+00  0.00000E+00  0.00000E+00  0.00000E+00  0.19206E-03  0.11283E-02
  0.21115E-02  0.30614E-02  0.38819E-02  0.44619E-02  0.45953E-02  0.38345E-02
  0.00000E+00  0.00000E+00  0.52335E-02  0.17474E-01  0.41287E-01  0.85048E-01
  0.16407E+00  0.30265E+00  0.59185E+00  0.11456E+01  0.21171E+01  0.40280E+01
  0.75658E+01  0.13476E+02  0.24561E+02  0.43907E+02  0.77436E+02  0.13188E+03
  0.22127E+03  0.35459E+03  0.55686E+03  0.00000E+00  0.58458E-04  0.11845E-03
  0.18050E-03  0.21491E-02  0.43319E-02  0.64908E-02  0.84988E-02  0.10183E-01
  0.11487E-01  0.12237E-01  0.12241E-01  0.10998E-01  0.00000E+00  0.13730E-02
  0.12429E-01  0.39226E-01  0.88140E-01  0.17516E+00  0.32527E+00  0.63617E+00
  0.12261E+01  0.22375E+01  0.42243E+01  0.78730E+01  0.13912E+02  0.25194E+02
  0.44785E+02  0.78610E+02  0.13332E+03  0.22292E+03  0.35610E+03  0.55771E+03
  0.00000E+00  0.62124E-03  0.12555E-02  0.19074E-02  0.60389E-02  0.10398E-01
  0.14541E-01  0.18232E-01  0.21274E-01  0.23620E-01  0.25122E-01  0.25608E-01
  0.24755E-01  0.20366E-01  0.00000E+00  0.42254E-02  0.35756E-01  0.92277E-01
  0.19069E+00  0.35710E+00  0.69939E+00  0.13394E+01  0.24122E+01  0.45075E+01
  0.83148E+01  0.14543E+02  0.26115E+02  0.46081E+02  0.80381E+02  0.13559E+03
  0.22569E+03  0.35910E+03  0.56051E+03  0.00000E+00  0.21867E-02  0.44102E-02
  0.66822E-02  0.14403E-01  0.22059E-01  0.29024E-01  0.35006E-01  0.39717E-01
  0.43215E-01  0.45381E-01  0.46136E-01  0.45108E-01  0.39521E-01  0.26478E-01
  0.43718E-02  0.34818E-01  0.10240E+00  0.21879E+00  0.41059E+00  0.79985E+00
  0.15103E+01  0.26777E+01  0.49308E+01  0.89685E+01  0.15479E+02  0.27483E+02
  0.48024E+02  0.83079E+02  0.13916E+03  0.23027E+03  0.36455E+03  0.56665E+03
  0.00000E+00  0.63423E-02  0.12767E-01  0.19296E-01  0.33154E-01  0.46243E-01
  0.57592E-01  0.66818E-01  0.73792E-01  0.79003E-01  0.81988E-01  0.82791E-01
  0.81192E-01  0.73269E-01  0.55546E-01  0.27322E-01  0.21294E-01  0.12137E+00
  0.25200E+00  0.47691E+00  0.92873E+00  0.17386E+01  0.30273E+01  0.54875E+01
  0.98255E+01  0.16701E+02  0.29265E+02  0.50546E+02  0.86574E+02  0.14377E+03
  0.23621E+03  0.37165E+03  0.57472E+03  0.00000E+00  0.15943E-01  0.32063E-01
  0.48381E-01  0.72639E-01  0.94312E-01  0.11212E+00  0.12623E+00  0.13662E+00
  0.14386E+00  0.14770E+00  0.14878E+00  0.14613E+00  0.13421E+00  0.10887E+00
  0.70170E-01  0.24591E-02  0.10579E+00  0.10567E+01  0.56131E+00  0.10975E+01
  0.20354E+01  0.34891E+01  0.62228E+01  0.10954E+02  0.18303E+02  0.31591E+02
  0.53828E+02  0.91110E+02  0.14975E+03  0.24391E+03  0.38089E+03  0.58528E+03
  0.00000E+00  0.36428E-01  0.73149E-01  0.11022E+00  0.15121E+00  0.18656E+00
  0.21448E+00  0.23611E+00  0.25135E+00  0.26172E+00  0.26660E+00  0.26742E+00
  0.26283E+00  0.24492E+00  0.20790E+00  0.15316E+00  0.59981E-01  0.86890E-01
  0.31123E+00  0.54250E+00  0.13212E+01  0.24258E+01  0.41006E+01  0.71984E+01
  0.12448E+02  0.20413E+02  0.34641E+02  0.58112E+02  0.97012E+02  0.15752E+03
  0.25388E+03  0.39288E+03  0.59906E+03  0.00000E+00  0.79067E-01  0.15868E+00
  0.23887E+00  0.30782E+00  0.36420E+00  0.40805E+00  0.43993E+00  0.46130E+00
  0.47633E+00  0.48265E+00  0.48220E+00  0.47406E+00  0.44584E+00  0.39080E+00
  0.31165E+00  0.18047E+00  0.20135E-01  0.31928E+00  0.74814E+00  0.15125E+01
  0.29721E+01  0.49111E+01  0.84985E+01  0.14436E+02  0.23209E+02  0.38661E+02
  0.63731E+02  0.10472E+03  0.16762E+03  0.26684E+03  0.40844E+03  0.61700E+03
  0.00000E+00  0.21352E+00  0.42802E+00  0.64404E+00  0.78801E+00  0.89785E+00
  0.98047E+00  0.10377E+01  0.10768E+01  0.11023E+01  0.11171E+01  0.11205E+01
  0.11144E+01  0.10806E+01  0.10081E+01  0.90708E+00  0.73769E+00  0.48245E+00
  0.11004E+00  0.41043E+00  0.14097E+01  0.31945E+01  0.53048E+01  0.94000E+01
  0.16039E+02  0.25556E+02  0.42156E+02  0.68632E+02  0.11132E+03  0.17580E+03
  0.27644E+03  0.41796E+03  0.62436E+03  0.00000E+00  0.90502E+00  0.18141E+01
  0.27279E+01  0.27360E+01  0.27456E+01  0.27569E+01  0.27696E+01  0.27827E+01
  0.27951E+01  0.28024E+01  0.28044E+01  0.27986E+01  0.27584E+01  0.26697E+01
  0.25490E+01  0.23448E+01  0.20379E+01  0.15969E+01  0.99932E+00  0.18656E+00
  0.20838E+01  0.46324E+01  0.92477E+01  0.16590E+02  0.26751E+02  0.44381E+02
  0.72003E+02  0.11590E+03  0.18097E+03  0.28128E+03  0.41953E+03  0.61845E+03
  0.00000E+00  0.17251E+01  0.34565E+01  0.51947E+01  0.52068E+01  0.52213E+01
  0.52379E+01  0.52567E+01  0.52758E+01  0.52932E+01  0.53025E+01  0.53031E+01
  0.52917E+01  0.52275E+01  0.50905E+01  0.49090E+01  0.46091E+01  0.41702E+01
  0.35581E+01  0.27585E+01  0.11848E+01  0.12649E+01  0.44169E+01  0.10044E+02
  0.18747E+02  0.30318E+02  0.50114E+02  0.80394E+02  0.12756E+03  0.19591E+03
  0.29965E+03  0.43954E+03  0.63799E+03  0.00000E+00  0.32897E+01  0.65890E+01
  0.98985E+01  0.99166E+01  0.99381E+01  0.99628E+01  0.99904E+01  0.10018E+02
  0.10042E+02  0.10053E+02  0.10050E+02  0.10028E+02  0.99242E+01  0.97097E+01
  0.94315E+01  0.89819E+01  0.83395E+01  0.74679E+01  0.63683E+01  0.42240E+01
  0.97596E+00  0.30222E+01  0.10057E+02  0.20617E+02  0.34045E+02  0.56681E+02
  0.90379E+02  0.14170E+03  0.21408E+03  0.32194E+03  0.46354E+03  0.66093E+03
  0.00000E+00  0.62757E+01  0.12566E+02  0.18872E+02  0.18899E+02  0.18931E+02
  0.18967E+02  0.19008E+02  0.19047E+02  0.19081E+02  0.19093E+02  0.19082E+02
  0.19039E+02  0.18870E+02  0.18530E+02  0.18097E+02  0.17411E+02  0.16451E+02
  0.15181E+02  0.13628E+02  0.10632E+02  0.62117E+01  0.10061E+01  0.80204E+01
  0.21152E+02  0.37051E+02  0.63447E+02  0.10157E+03  0.15815E+03  0.23546E+03
  0.34819E+03  0.49133E+03  0.68655E+03  0.00000E+00  0.11973E+02  0.23970E+02
  0.35988E+02  0.36028E+02  0.36075E+02  0.36129E+02  0.36189E+02  0.36245E+02
  0.36291E+02  0.36301E+02  0.36273E+02  0.36195E+02  0.35915E+02  0.35372E+02
  0.34690E+02  0.33628E+02  0.32170E+02  0.30280E+02  0.28034E+02  0.23748E+02
  0.17581E+02  0.10622E+02  0.12657E+01  0.18015E+02  0.37250E+02  0.68684E+02
  0.11257E+03  0.17584E+03  0.25910E+03  0.37747E+03  0.52149E+03  0.71257E+03
  0.00000E+00  0.22848E+02  0.45732E+02  0.68647E+02  0.68708E+02  0.68778E+02
  0.68858E+02  0.68944E+02  0.69024E+02  0.69086E+02  0.69088E+02  0.69027E+02
  0.68884E+02  0.68424E+02  0.67551E+02  0.66466E+02  0.64804E+02  0.62555E+02
  0.59693E+02  0.56373E+02  0.50110E+02  0.41303E+02  0.31756E+02  0.15689E+02
  0.62360E+01  0.30042E+02  0.68324E+02  0.11980E+03  0.19163E+03  0.28199E+03
  0.40664E+03  0.55010E+03  0.73366E+03  0.00000E+00  0.43608E+02  0.87272E+02
  0.13098E+03  0.13107E+03  0.13117E+03  0.13129E+03  0.13142E+03  0.13153E+03
  0.13161E+03  0.13159E+03  0.13147E+03  0.13121E+03  0.13045E+03  0.12904E+03
  0.12731E+03  0.12468E+03  0.12117E+03  0.11678E+03  0.11177E+03  0.10245E+03
  0.89601E+02  0.76173E+02  0.53905E+02  0.24451E+02  0.57351E+01  0.53475E+02
  0.11508E+03  0.19793E+03  0.29666E+03  0.42797E+03  0.56806E+03  0.73841E+03
  0.00000E+00  0.83246E+02  0.16658E+03  0.24998E+03  0.25011E+03  0.25027E+03
  0.25044E+03  0.25062E+03  0.25078E+03  0.25088E+03  0.25082E+03  0.25058E+03
  0.25013E+03  0.24888E+03  0.24659E+03  0.24380E+03  0.23962E+03  0.23410E+03
  0.22726E+03  0.21959E+03  0.20548E+03  0.18640E+03  0.16706E+03  0.13545E+03
  0.94870E+02  0.55606E+02  0.54331E+01  0.80774E+02  0.17798E+03  0.28642E+03
  0.42421E+03  0.55587E+03  0.70368E+03  0.00000E+00  0.15891E+03  0.31797E+03
  0.47711E+03  0.47731E+03  0.47753E+03  0.47779E+03  0.47805E+03  0.47827E+03
  0.47838E+03  0.47823E+03  0.47780E+03  0.47701E+03  0.47494E+03  0.47124E+03
  0.46673E+03  0.46005E+03  0.45130E+03  0.44055E+03  0.42865E+03  0.40702E+03
  0.37820E+03  0.34977E+03  0.30394E+03  0.24666E+03  0.19423E+03  0.11415E+03
  0.19857E+02  0.96289E+02  0.21579E+03  0.35883E+03  0.47340E+03  0.58356E+03
  0.00000E+00  0.30339E+03  0.60702E+03  0.91075E+03  0.91105E+03  0.91139E+03
  0.91175E+03  0.91213E+03  0.91242E+03  0.91255E+03  0.91223E+03  0.91146E+03
  0.91009E+03  0.90668E+03  0.90067E+03  0.89336E+03  0.88265E+03  0.86869E+03
  0.85169E+03  0.83303E+03  0.79949E+03  0.75539E+03  0.71279E+03  0.64502E+03
  0.56235E+03  0.49046E+03  0.38259E+03  0.26159E+03  0.11997E+03  0.11877E+02
  0.15723E+03  0.24030E+03  0.28860E+03  0.00000E+00  0.00000E+00  0.00000E+00
  0.00000E+00  0.00000E+00  0.00000E+00  0.00000E+00  0.00000E+00  0.00000E+00
  0.00000E+00  0.00000E+00  0.00000E+00  0.00000E+00  0.00000E+00  0.00000E+00
  0.00000E+00  0.00000E+00  0.00000E+00  0.00000E+00  0.00000E+00  0.00000E+00
  0.00000E+00  0.00000E+00  0.00000E+00  0.00000E+00  0.00000E+00  0.00000E+00
  0.00000E+00  0.00000E+00  0.00000E+00  0.00000E+00  0.00000E+00  0.00000E+00
  0.00000E+00  0.00000E+00  0.00000E+00  0.00000E+00  0.00000E+00  0.00000E+00
  0.00000E+00  0.19267E-07  0.10998E-06  0.00000E+00  0.00000E+00  0.00000E+00
  0.00000E+00  0.95035E-04  0.23991E-03  0.54678E-03  0.12118E-02  0.25984E-02
  0.54108E-02  0.10870E-01  0.22902E-01  0.47582E-01  0.94387E-01  0.18935E+00
  0.37218E+00  0.68978E+00  0.12975E+01  0.23807E+01  0.42889E+01  0.74351E+01
  0.12655E+02  0.20531E+02  0.32574E+02  0.00000E+00  0.00000E+00  0.00000E+00
  0.00000E+00  0.00000E+00  0.00000E+00  0.00000E+00  0.42591E-07  0.24074E-06
  0.00000E+00  0.00000E+00  0.00000E+00  0.00000E+00  0.19751E-03  0.49501E-03
  0.11218E-02  0.24729E-02  0.52821E-02  0.10963E-01  0.21968E-01  0.46191E-01
  0.95803E-01  0.18973E+00  0.38021E+00  0.74667E+00  0.13829E+01  0.25998E+01
  0.47682E+01  0.85870E+01  0.14882E+02  0.25325E+02  0.41078E+02  0.65164E+02
  0.00000E+00  0.00000E+00  0.00000E+00  0.00000E+00  0.00000E+00  0.00000E+00
  0.00000E+00  0.70776E-07  0.39855E-06  0.00000E+00  0.00000E+00  0.00000E+00
  0.00000E+00  0.31038E-03  0.77147E-03  0.17359E-02  0.38041E-02  0.80875E-02
  0.16719E-01  0.33384E-01  0.70013E-01  0.14491E+00  0.28662E+00  0.57359E+00
  0.11252E+01  0.20822E+01  0.39117E+01  0.71704E+01  0.12908E+02  0.22362E+02
  0.38043E+02  0.61694E+02  0.97850E+02  0.00000E+00  0.00000E+00  0.00000E+00
  0.00000E+00  0.00000E+00  0.00000E+00  0.00000E+00  0.10294E-06  0.58633E-06
  0.00000E+00  0.00000E+00  0.00000E+00  0.00000E+00  0.43746E-03  0.10776E-02
  0.24030E-02  0.52326E-02  0.11053E-01  0.22740E-01  0.45236E-01  0.94566E-01
  0.19522E+00  0.38528E+00  0.76975E+00  0.15080E+01  0.27875E+01  0.52322E+01
  0.95845E+01  0.17244E+02  0.29861E+02  0.50783E+02  0.82331E+02  0.13055E+03
  0.00000E+00  0.00000E+00  0.00000E+00  0.00000E+00  0.00000E+00  0.00000E+00
  0.00000E+00  0.13564E-06  0.80345E-06  0.00000E+00  0.00000E+00  0.00000E+00
  0.00000E+00  0.58417E-03  0.14239E-02  0.31452E-02  0.67914E-02  0.14249E-01
  0.29142E-01  0.57683E-01  0.12012E+00  0.24718E+00  0.48653E+00  0.97003E+00
  0.18972E+01  0.35022E+01  0.65667E+01  0.12019E+02  0.21608E+02  0.37399E+02
  0.63575E+02  0.10303E+03  0.16333E+03  0.00000E+00  0.00000E+00  0.00000E+00
  0.00000E+00  0.00000E+00  0.00000E+00  0.00000E+00  0.15402E-06  0.10195E-05
  0.00000E+00  0.00000E+00  0.00000E+00  0.00000E+00  0.75715E-03  0.18251E-02
  0.39883E-02  0.85294E-02  0.17750E-01  0.36042E-01  0.70935E-01  0.14702E+00
  0.30136E+00  0.59127E+00  0.11758E+01  0.22950E+01  0.42295E+01  0.79199E+01
  0.14480E+02  0.26011E+02  0.44989E+02  0.76435E+02  0.12382E+03  0.19622E+03
  0.00000E+00  0.00000E+00  0.00000E+00  0.00000E+00  0.00000E+00  0.00000E+00
  0.00000E+00  0.11549E-06  0.11369E-05  0.00000E+00  0.00000E+00  0.00000E+00
  0.00000E+00  0.96449E-03  0.22995E-02  0.49670E-02  0.10509E-01  0.21660E-01
  0.43631E-01  0.85266E-01  0.17572E+00  0.35852E+00  0.70080E+00  0.13893E+01
  0.27048E+01  0.49745E+01  0.92996E+01  0.16980E+02  0.30470E+02  0.52656E+02
  0.89400E+02  0.14474E+03  0.22927E+03  0.00000E+00  0.00000E+00  0.00000E+00
  0.00000E+00  0.00000E+00  0.00000E+00  0.00000E+00  0.11039E-06  0.82364E-06
  0.00000E+00  0.00000E+00  0.00000E+00  0.00000E+00  0.12121E-02  0.28657E-02
  0.61196E-02  0.12802E-01  0.26113E-01  0.52111E-01  0.10101E+00  0.20679E+00
  0.41958E+00  0.81627E+00  0.16122E+01  0.31291E+01  0.57402E+01  0.10710E+02
  0.19523E+02  0.34987E+02  0.60399E+02  0.10246E+03  0.16577E+03  0.26243E+03
  0.00000E+00  0.00000E+00  0.00000E+00  0.00000E+00  0.00000E+00  0.00000E+00
  0.00000E+00  0.85084E-06  0.76012E-06  0.00000E+00  0.00000E+00  0.00000E+00
  0.00000E+00  0.15019E-02  0.35417E-02  0.74905E-02  0.15498E-01  0.31263E-01
  0.61747E-01  0.11859E+00  0.24095E+00  0.48573E+00  0.93969E+00  0.18476E+01
  0.35728E+01  0.65340E+01  0.12161E+02  0.22124E+02  0.39587E+02  0.68250E+02
  0.11566E+03  0.18696E+03  0.29577E+03  0.00000E+00  0.00000E+00  0.00000E+00
  0.00000E+00  0.00000E+00  0.00000E+00  0.00000E+00  0.30311E-05  0.60340E-05
  0.00000E+00  0.00000E+00  0.00000E+00  0.00000E+00  0.18082E-02  0.43169E-02
  0.90947E-02  0.18663E-01  0.37260E-01  0.72816E-01  0.13847E+00  0.27897E+00
  0.55828E+00  0.10730E+01  0.20988E+01  0.40409E+01  0.73628E+01  0.13663E+02
  0.24798E+02  0.44285E+02  0.76228E+02  0.12901E+03  0.20832E+03  0.32927E+03
  0.00000E+00  0.00000E+00  0.00000E+00  0.00000E+00  0.00000E+00  0.00000E+00
  0.00000E+00  0.85905E-05  0.19975E-04  0.00000E+00  0.00000E+00  0.00000E+00
  0.00000E+00  0.20833E-02  0.51705E-02  0.10956E-01  0.22400E-01  0.44338E-01
  0.85736E-01  0.16132E+00  0.32209E+00  0.63933E+00  0.12197E+01  0.23713E+01
  0.45419E+01  0.82388E+01  0.15235E+02  0.27570E+02  0.49119E+02  0.84383E+02
  0.14259E+03  0.22994E+03  0.36303E+03  0.00000E+00  0.00000E+00  0.00000E+00
  0.00000E+00  0.00000E+00  0.00000E+00  0.00000E+00  0.21951E-04  0.53893E-04
  0.00000E+00  0.00000E+00  0.00000E+00  0.00000E+00  0.21953E-02  0.59990E-02
  0.13030E-01  0.26770E-01  0.52721E-01  0.10102E+00  0.18800E+00  0.37187E+00
  0.73153E+00  0.13837E+01  0.26710E+01  0.50849E+01  0.91745E+01  0.16893E+02
  0.30463E+02  0.54116E+02  0.92745E+02  0.15641E+03  0.25181E+03  0.39700E+03
  0.00000E+00  0.00000E+00  0.00000E+00  0.00000E+00  0.00000E+00  0.00000E+00
  0.00000E+00  0.57215E-04  0.14424E-03  0.00000E+00  0.00000E+00  0.00000E+00
  0.00000E+00  0.15404E-02  0.61358E-02  0.14600E-01  0.31041E-01  0.61690E-01
  0.11791E+00  0.21779E+00  0.42776E+00  0.83469E+00  0.15649E+01  0.29988E+01
  0.56716E+01  0.10171E+02  0.18638E+02  0.33474E+02  0.59266E+02  0.10128E+03
  0.17041E+03  0.27377E+03  0.43088E+03  0.00000E+00  0.00000E+00  0.00000E+00
  0.00000E+00  0.00000E+00  0.56653E-03  0.13125E-02  0.20540E-02  0.26942E-02
  0.31412E-02  0.32040E-02  0.22696E-02  0.00000E+00  0.00000E+00  0.40865E-02
  0.13509E-01  0.31853E-01  0.65617E-01  0.12684E+00  0.23398E+00  0.45752E+00
  0.88739E+00  0.16399E+01  0.31201E+01  0.58605E+01  0.10439E+02  0.19025E+02
  0.34010E+02  0.59982E+02  0.10216E+03  0.17140E+03  0.27467E+03  0.43134E+03
  0.00000E+00  0.00000E+00  0.00000E+00  0.00000E+00  0.94792E-03  0.25887E-02
  0.43001E-02  0.59227E-02  0.73113E-02  0.84134E-02  0.90365E-02  0.90444E-02
  0.78761E-02  0.00000E+00  0.10891E-02  0.96458E-02  0.30326E-01  0.68135E-01
  0.13542E+00  0.25145E+00  0.49277E+00  0.94972E+00  0.17331E+01  0.32721E+01
  0.60984E+01  0.10776E+02  0.19515E+02  0.34690E+02  0.60891E+02  0.10327E+03
  0.17267E+03  0.27583E+03  0.43200E+03  0.00000E+00  0.11733E-03  0.23720E-03
  0.36011E-03  0.33849E-02  0.67612E-02  0.10101E-01  0.13128E-01  0.15676E-01
  0.17635E-01  0.18937E-01  0.19391E-01  0.18784E-01  0.15293E-01  0.00000E+00
  0.33237E-02  0.27641E-01  0.71334E-01  0.14771E+00  0.27608E+00  0.54175E+00
  0.10375E+01  0.18685E+01  0.34915E+01  0.64406E+01  0.11265E+02  0.20228E+02
  0.35694E+02  0.62263E+02  0.10503E+03  0.17482E+03  0.27816E+03  0.43417E+03
  0.00000E+00  0.10726E-02  0.21625E-02  0.32763E-02  0.90757E-02  0.15152E-01
  0.20826E-01  0.25701E-01  0.29704E-01  0.32708E-01  0.34574E-01  0.35303E-01
  0.34590E-01  0.30307E-01  0.20263E-01  0.34352E-02  0.27877E-01  0.79322E-01
  0.16947E+00  0.31741E+00  0.61956E+00  0.11699E+01  0.20741E+01  0.38194E+01
  0.69470E+01  0.11990E+02  0.21289E+02  0.37199E+02  0.64352E+02  0.10779E+03
  0.17837E+03  0.28238E+03  0.43892E+03  0.00000E+00  0.38125E-02  0.76722E-02
  0.11601E-01  0.22227E-01  0.32688E-01  0.42000E-01  0.49707E-01  0.55705E-01
  0.60062E-01  0.62736E-01  0.63617E-01  0.62513E-01  0.56526E-01  0.42858E-01
  0.21078E-01  0.16561E-01  0.11097E+00  0.19559E+00  0.36942E+00  0.71939E+00
  0.13467E+01  0.23449E+01  0.42506E+01  0.76108E+01  0.12937E+02  0.22668E+02
  0.39153E+02  0.67060E+02  0.11136E+03  0.18297E+03  0.28788E+03  0.44517E+03
  0.00000E+00  0.10327E-01  0.20764E-01  0.31324E-01  0.50280E-01  0.67910E-01
  0.82742E-01  0.94637E-01  0.10363E+00  0.10985E+00  0.11349E+00  0.11455E+00
  0.11253E+00  0.10376E+00  0.84164E-01  0.54249E-01  0.19012E-02  0.81778E-01
  0.00000E+00  0.43652E+00  0.85010E+00  0.15766E+01  0.27026E+01  0.48201E+01
  0.84850E+01  0.14178E+02  0.24470E+02  0.41695E+02  0.70574E+02  0.11600E+03
  0.18893E+03  0.29504E+03  0.45336E+03  0.00000E+00  0.24550E-01  0.49297E-01
  0.74277E-01  0.10723E+00  0.13609E+00  0.15960E+00  0.17789E+00  0.19111E+00
  0.20028E+00  0.20527E+00  0.20591E+00  0.20280E+00  0.18935E+00  0.16073E+00
  0.11840E+00  0.46368E-01  0.67169E-01  0.24061E+00  0.44211E+00  0.10295E+01
  0.18790E+01  0.31763E+01  0.55758E+01  0.96421E+01  0.15812E+02  0.26833E+02
  0.45013E+02  0.75145E+02  0.12201E+03  0.19666E+03  0.30432E+03  0.46403E+03
  0.00000E+00  0.55260E-01  0.11087E+00  0.16688E+00  0.22280E+00  0.27007E+00
  0.30662E+00  0.33439E+00  0.35368E+00  0.36601E+00  0.37239E+00  0.37202E+00
  0.36650E+00  0.34535E+00  0.30210E+00  0.24095E+00  0.13979E+00  0.15565E-01
  0.24731E+00  0.57834E+00  0.11623E+01  0.23158E+01  0.38041E+01  0.65829E+01
  0.11182E+02  0.17977E+02  0.29947E+02  0.49366E+02  0.81113E+02  0.12983E+03
  0.20669E+03  0.31637E+03  0.47793E+03  0.00000E+00  0.15412E+00  0.30894E+00
  0.46487E+00  0.58503E+00  0.68030E+00  0.75001E+00  0.79890E+00  0.83076E+00
  0.85216E+00  0.86532E+00  0.86794E+00  0.86321E+00  0.83706E+00  0.78087E+00
  0.70262E+00  0.57141E+00  0.37370E+00  0.85075E-01  0.31792E+00  0.10919E+01
  0.51582E+01  0.41091E+01  0.72812E+01  0.12424E+02  0.19796E+02  0.32654E+02
  0.53162E+02  0.86226E+02  0.13618E+03  0.21413E+03  0.32375E+03  0.48363E+03
  0.00000E+00  0.70102E+00  0.14052E+01  0.21130E+01  0.21193E+01  0.21268E+01
  0.21355E+01  0.21453E+01  0.21555E+01  0.21651E+01  0.21708E+01  0.21723E+01
  0.21678E+01  0.21367E+01  0.20679E+01  0.19744E+01  0.18162E+01  0.15785E+01
  0.12369E+01  0.77407E+00  0.14451E+00  0.16141E+01  0.35883E+01  0.71633E+01
  0.12851E+02  0.20721E+02  0.34377E+02  0.55773E+02  0.89775E+02  0.14018E+03
  0.21788E+03  0.32496E+03  0.47905E+03  0.00000E+00  0.13363E+01  0.26774E+01
  0.40238E+01  0.40332E+01  0.40444E+01  0.40573E+01  0.40718E+01  0.40866E+01
  0.41001E+01  0.41073E+01  0.41078E+01  0.40989E+01  0.40492E+01  0.39431E+01
  0.38025E+01  0.35702E+01  0.32303E+01  0.27561E+01  0.21367E+01  0.91771E+00
  0.97980E+00  0.34213E+01  0.77800E+01  0.14521E+02  0.23484E+02  0.38818E+02
  0.62273E+02  0.98811E+02  0.15176E+03  0.23211E+03  0.34047E+03  0.49419E+03
  0.00000E+00  0.25482E+01  0.51038E+01  0.76674E+01  0.76814E+01  0.76980E+01
  0.77171E+01  0.77385E+01  0.77598E+01  0.77788E+01  0.77874E+01  0.77850E+01
  0.77678E+01  0.76872E+01  0.75211E+01  0.73056E+01  0.69574E+01  0.64597E+01
  0.57846E+01  0.49328E+01  0.32719E+01  0.75597E+00  0.23410E+01  0.77905E+01
  0.15970E+02  0.26371E+02  0.43905E+02  0.70007E+02  0.10976E+03  0.16583E+03
  0.24937E+03  0.35906E+03  0.51196E+03  0.00000E+00  0.48612E+01  0.97338E+01
  0.14618E+02  0.14639E+02  0.14664E+02  0.14692E+02  0.14723E+02  0.14754E+02
  0.14780E+02  0.14789E+02  0.14781E+02  0.14748E+02  0.14616E+02  0.14353E+02
  0.14018E+02  0.13486E+02  0.12743E+02  0.11759E+02  0.10556E+02  0.82356E+01
  0.48116E+01  0.77928E+00  0.62126E+01  0.16384E+02  0.28700E+02  0.49146E+02
  0.78673E+02  0.12250E+03  0.18238E+03  0.26971E+03  0.38058E+03  0.53180E+03
  0.00000E+00  0.92745E+01  0.18567E+02  0.27876E+02  0.27907E+02  0.27944E+02
  0.27986E+02  0.28032E+02  0.28075E+02  0.28111E+02  0.28119E+02  0.28097E+02
  0.28036E+02  0.27820E+02  0.27399E+02  0.26871E+02  0.26048E+02  0.24919E+02
  0.23455E+02  0.21715E+02  0.18395E+02  0.13618E+02  0.82279E+01  0.98043E+00
  0.13955E+02  0.28854E+02  0.53202E+02  0.87195E+02  0.13621E+03  0.20070E+03
  0.29239E+03  0.40395E+03  0.55196E+03  0.00000E+00  0.17698E+02  0.35424E+02
  0.53174E+02  0.53221E+02  0.53275E+02  0.53337E+02  0.53404E+02  0.53466E+02
  0.53514E+02  0.53515E+02  0.53468E+02  0.53357E+02  0.53001E+02  0.52325E+02
  0.51485E+02  0.50197E+02  0.48455E+02  0.46238E+02  0.43666E+02  0.38815E+02
  0.31993E+02  0.24598E+02  0.12153E+02  0.48304E+01  0.23270E+02  0.52923E+02
  0.92796E+02  0.14844E+03  0.21843E+03  0.31498E+03  0.42611E+03  0.56829E+03
  0.00000E+00  0.33778E+02  0.67601E+02  0.10146E+03  0.10153E+03  0.10161E+03
  0.10170E+03  0.10179E+03  0.10188E+03  0.10194E+03  0.10193E+03  0.10184E+03
  0.10164E+03  0.10105E+03  0.99958E+02  0.98612E+02  0.96578E+02  0.93860E+02
  0.90454E+02  0.86577E+02  0.79354E+02  0.69405E+02  0.59003E+02  0.41754E+02
  0.18940E+02  0.44424E+01  0.41421E+02  0.89141E+02  0.15332E+03  0.22979E+03
  0.33151E+03  0.44002E+03  0.57197E+03  0.00000E+00  0.64482E+02  0.12903E+03
  0.19363E+03  0.19374E+03  0.19386E+03  0.19399E+03  0.19413E+03  0.19425E+03
  0.19433E+03  0.19428E+03  0.19410E+03  0.19375E+03  0.19278E+03  0.19101E+03
  0.18885E+03  0.18561E+03  0.18133E+03  0.17603E+03  0.17009E+03  0.15917E+03
  0.14438E+03  0.12940E+03  0.10492E+03  0.73486E+02  0.43073E+02  0.42084E+01
  0.62567E+02  0.13786E+03  0.22186E+03  0.32859E+03  0.43057E+03  0.54507E+03
  0.00000E+00  0.12309E+03  0.24630E+03  0.36957E+03  0.36972E+03  0.36990E+03
  0.37009E+03  0.37029E+03  0.37046E+03  0.37055E+03  0.37044E+03  0.37010E+03
  0.36949E+03  0.36789E+03  0.36502E+03  0.36153E+03  0.35635E+03  0.34957E+03
  0.34125E+03  0.33203E+03  0.31528E+03  0.29296E+03  0.27093E+03  0.23543E+03
  0.19106E+03  0.15045E+03  0.88421E+02  0.15381E+02  0.74585E+02  0.16715E+03
  0.27795E+03  0.36669E+03  0.45202E+03  0.00000E+00  0.23501E+03  0.47020E+03
  0.70547E+03  0.70569E+03  0.70596E+03  0.70624E+03  0.70653E+03  0.70676E+03
  0.70686E+03  0.70661E+03  0.70601E+03  0.70495E+03  0.70231E+03  0.69765E+03
  0.69200E+03  0.68370E+03  0.67289E+03  0.65972E+03  0.64526E+03  0.61929E+03
  0.58513E+03  0.55212E+03  0.49963E+03  0.43559E+03  0.37991E+03  0.29635E+03
  0.20263E+03  0.92927E+02  0.91996E+01  0.12179E+03  0.18613E+03  0.22355E+03
  0.00000E+00  0.00000E+00  0.00000E+00  0.00000E+00  0.00000E+00  0.00000E+00
  0.00000E+00  0.00000E+00  0.00000E+00  0.00000E+00  0.00000E+00  0.00000E+00
  0.00000E+00  0.00000E+00  0.00000E+00  0.00000E+00  0.00000E+00  0.00000E+00
  0.00000E+00  0.00000E+00  0.00000E+00  0.00000E+00  0.00000E+00  0.00000E+00
  0.00000E+00  0.00000E+00  0.00000E+00  0.00000E+00  0.00000E+00  0.00000E+00
  0.00000E+00  0.00000E+00  0.00000E+00  0.00000E+00  0.00000E+00  0.00000E+00
  0.00000E+00  0.00000E+00  0.00000E+00  0.00000E+00  0.00000E+00  0.00000E+00
  0.00000E+00  0.00000E+00  0.00000E+00  0.00000E+00  0.77761E-04  0.19511E-03
  0.44376E-03  0.98342E-03  0.21091E-02  0.43914E-02  0.88403E-02  0.18628E-01
  0.38774E-01  0.77066E-01  0.15460E+00  0.30388E+00  0.56321E+00  0.10594E+01
  0.19438E+01  0.35019E+01  0.60707E+01  0.10333E+02  0.16763E+02  0.26596E+02
  0.00000E+00  0.00000E+00  0.00000E+00  0.00000E+00  0.00000E+00  0.00000E+00
  0.00000E+00  0.00000E+00  0.00000E+00  0.00000E+00  0.00000E+00  0.00000E+00
  0.00000E+00  0.16164E-03  0.40275E-03  0.91032E-03  0.20069E-02  0.42868E-02
  0.88979E-02  0.17865E-01  0.37565E-01  0.78068E-01  0.15492E+00  0.31044E+00
  0.60966E+00  0.11291E+01  0.21227E+01  0.38932E+01  0.70113E+01  0.12151E+02
  0.20678E+02  0.33540E+02  0.53206E+02  0.00000E+00  0.00000E+00  0.00000E+00
  0.00000E+00  0.00000E+00  0.00000E+00  0.00000E+00  0.00000E+00  0.00000E+00
  0.00000E+00  0.00000E+00  0.00000E+00  0.00000E+00  0.25393E-03  0.62753E-03
  0.14083E-02  0.30879E-02  0.65622E-02  0.13566E-01  0.27149E-01  0.56938E-01
  0.11811E+00  0.23402E+00  0.46833E+00  0.91874E+00  0.17001E+01  0.31939E+01
  0.58546E+01  0.10539E+02  0.18258E+02  0.31062E+02  0.50373E+02  0.79894E+02
  0.00000E+00  0.00000E+00  0.00000E+00  0.00000E+00  0.00000E+00  0.00000E+00
  0.00000E+00  0.00000E+00  0.00000E+00  0.00000E+00  0.00000E+00  0.00000E+00
  0.00000E+00  0.35786E-03  0.87612E-03  0.19506E-02  0.42465E-02  0.89737E-02
  0.18456E-01  0.36788E-01  0.76906E-01  0.15908E+00  0.31458E+00  0.62849E+00
  0.12313E+01  0.22760E+01  0.42721E+01  0.78257E+01  0.14079E+02  0.24382E+02
  0.41464E+02  0.67223E+02  0.10660E+03  0.00000E+00  0.00000E+00  0.00000E+00
  0.00000E+00  0.00000E+00  0.00000E+00  0.00000E+00  0.00000E+00  0.00000E+00
  0.00000E+00  0.00000E+00  0.00000E+00  0.00000E+00  0.47798E-03  0.11577E-02
  0.25526E-02  0.55123E-02  0.11565E-01  0.23655E-01  0.46910E-01  0.97685E-01
  0.20145E+00  0.39725E+00  0.79202E+00  0.15491E+01  0.28595E+01  0.53617E+01
  0.98133E+01  0.17643E+02  0.30536E+02  0.51909E+02  0.84127E+02  0.13336E+03
  0.00000E+00  0.00000E+00  0.00000E+00  0.00000E+00  0.00000E+00  0.00000E+00
  0.00000E+00  0.00000E+00  0.00000E+00  0.00000E+00  0.00000E+00  0.00000E+00
  0.00000E+00  0.61946E-03  0.14842E-02  0.32372E-02  0.69220E-02  0.14406E-01
  0.29258E-01  0.57687E-01  0.11956E+00  0.24558E+00  0.48277E+00  0.96007E+00
  0.18739E+01  0.34534E+01  0.64666E+01  0.11823E+02  0.21238E+02  0.36733E+02
  0.62409E+02  0.10110E+03  0.16021E+03  0.00000E+00  0.00000E+00  0.00000E+00
  0.00000E+00  0.00000E+00  0.00000E+00  0.00000E+00  0.00000E+00  0.00000E+00
  0.00000E+00  0.00000E+00  0.00000E+00  0.00000E+00  0.78921E-03  0.18700E-02
  0.40311E-02  0.85292E-02  0.17581E-01  0.35414E-01  0.69355E-01  0.14291E+00
  0.29218E+00  0.57220E+00  0.11344E+01  0.22085E+01  0.40616E+01  0.75931E+01
  0.13864E+02  0.24879E+02  0.42994E+02  0.72995E+02  0.11818E+03  0.18720E+03
  0.00000E+00  0.00000E+00  0.00000E+00  0.00000E+00  0.00000E+00  0.00000E+00
  0.00000E+00  0.00000E+00  0.00000E+00  0.00000E+00  0.00000E+00  0.00000E+00
  0.00000E+00  0.99176E-03  0.23303E-02  0.49668E-02  0.10391E-01  0.21193E-01
  0.42294E-01  0.82158E-01  0.16817E+00  0.34190E+00  0.66648E+00  0.13163E+01
  0.25549E+01  0.46868E+01  0.87443E+01  0.15940E+02  0.28567E+02  0.49316E+02
  0.83658E+02  0.13535E+03  0.21427E+03  0.00000E+00  0.00000E+00  0.00000E+00
  0.00000E+00  0.00000E+00  0.00000E+00  0.00000E+00  0.00000E+00  0.00000E+00
  0.00000E+00  0.00000E+00  0.00000E+00  0.00000E+00  0.12288E-02  0.28800E-02
  0.60788E-02  0.12580E-01  0.25375E-01  0.50118E-01  0.96460E-01  0.19595E+00
  0.39584E+00  0.76725E+00  0.15086E+01  0.29172E+01  0.53350E+01  0.99293E+01
  0.18065E+02  0.32322E+02  0.55726E+02  0.94433E+02  0.15265E+03  0.24149E+03
  0.00000E+00  0.00000E+00  0.00000E+00  0.00000E+00  0.00000E+00  0.00000E+00
  0.00000E+00  0.00000E+00  0.00000E+00  0.00000E+00  0.00000E+00  0.00000E+00
  0.00000E+00  0.14795E-02  0.35108E-02  0.73812E-02  0.15146E-01  0.30244E-01
  0.59097E-01  0.11261E+00  0.22690E+00  0.45493E+00  0.87614E+00  0.17137E+01
  0.32994E+01  0.60117E+01  0.11156E+02  0.20248E+02  0.36158E+02  0.62240E+02
  0.10534E+03  0.17010E+03  0.26885E+03  0.00000E+00  0.00000E+00  0.00000E+00
  0.00000E+00  0.00000E+00  0.00000E+00  0.00000E+00  0.00000E+00  0.00000E+00
  0.00000E+00  0.00000E+00  0.00000E+00  0.00000E+00  0.17045E-02  0.42044E-02
  0.88920E-02  0.18180E-01  0.35986E-01  0.69588E-01  0.13119E+00  0.26198E+00
  0.52101E+00  0.99592E+00  0.19361E+01  0.37085E+01  0.67269E+01  0.12439E+02
  0.22511E+02  0.40105E+02  0.68899E+02  0.11642E+03  0.18774E+03  0.29641E+03
  0.00000E+00  0.00000E+00  0.00000E+00  0.00000E+00  0.00000E+00  0.00000E+00
  0.00000E+00  0.00000E+00  0.00000E+00  0.00000E+00  0.00000E+00  0.00000E+00
  0.00000E+00  0.17961E-02  0.48780E-02  0.10576E-01  0.21728E-01  0.42792E-01
  0.81985E-01  0.15289E+00  0.30246E+00  0.59611E+00  0.11297E+01  0.21808E+01
  0.41518E+01  0.74909E+01  0.13793E+02  0.24873E+02  0.44186E+02  0.75726E+02
  0.12771E+03  0.20560E+03  0.32415E+03  0.00000E+00  0.00000E+00  0.00000E+00
  0.00000E+00  0.00000E+00  0.00000E+00  0.00000E+00  0.00000E+00  0.00000E+00
  0.00000E+00  0.00000E+00  0.00000E+00  0.00000E+00  0.12603E-02  0.49892E-02
  0.11850E-01  0.25196E-01  0.50069E-01  0.95714E-01  0.17712E+00  0.34792E+00
  0.68020E+00  0.12777E+01  0.24485E+01  0.46309E+01  0.83047E+01  0.15218E+02
  0.27331E+02  0.48390E+02  0.82695E+02  0.13914E+03  0.22353E+03  0.35181E+03
  0.00000E+00  0.00000E+00  0.00000E+00  0.00000E+00  0.00000E+00  0.20648E-03
  0.79527E-03  0.13895E-02  0.19139E-02  0.22718E-02  0.22807E-02  0.10655E-02
  0.00000E+00  0.00000E+00  0.33434E-02  0.11008E-01  0.25907E-01  0.53472E-01
  0.10316E+00  0.19068E+00  0.37284E+00  0.72316E+00  0.13390E+01  0.25475E+01
  0.47851E+01  0.85231E+01  0.15534E+02  0.27769E+02  0.48975E+02  0.83410E+02
  0.13995E+03  0.22426E+03  0.35219E+03  0.00000E+00  0.00000E+00  0.00000E+00
  0.00000E+00  0.29182E-03  0.15686E-02  0.29645E-02  0.43134E-02  0.55173E-02
  0.64691E-02  0.70106E-02  0.70215E-02  0.59124E-02  0.00000E+00  0.90049E-03
  0.78605E-02  0.24711E-01  0.55525E-01  0.11035E+00  0.20491E+00  0.40154E+00
  0.77396E+00  0.14151E+01  0.26717E+01  0.49794E+01  0.87987E+01  0.15934E+02
  0.28325E+02  0.49717E+02  0.84322E+02  0.14099E+03  0.22522E+03  0.35273E+03
  0.00000E+00  0.00000E+00  0.00000E+00  0.00000E+00  0.18681E-02  0.45575E-02
  0.73280E-02  0.99097E-02  0.12132E-01  0.13899E-01  0.15038E-01  0.15504E-01
  0.15024E-01  0.12124E-01  0.00000E+00  0.27604E-02  0.22569E-01  0.58132E-01
  0.12036E+00  0.22542E+00  0.44234E+00  0.84544E+00  0.15256E+01  0.28508E+01
  0.52587E+01  0.91978E+01  0.16516E+02  0.29144E+02  0.50838E+02  0.85756E+02
  0.14274E+03  0.22711E+03  0.35450E+03  0.00000E+00  0.43489E-03  0.87670E-03
  0.13283E-02  0.58633E-02  0.10815E-01  0.15619E-01  0.19861E-01  0.23350E-01
  0.26027E-01  0.27706E-01  0.28415E-01  0.27959E-01  0.24546E-01  0.16344E-01
  0.28048E-02  0.23799E-01  0.64766E-01  0.13811E+00  0.25916E+00  0.50485E+00
  0.95523E+00  0.16935E+01  0.31185E+01  0.56722E+01  0.97898E+01  0.17382E+02
  0.30373E+02  0.52544E+02  0.88010E+02  0.14564E+03  0.23056E+03  0.35838E+03
  0.00000E+00  0.22670E-02  0.45635E-02  0.68970E-02  0.15424E-01  0.24106E-01
  0.32065E-01  0.38857E-01  0.44125E-01  0.48126E-01  0.50499E-01  0.51426E-01
  0.50738E-01  0.45882E-01  0.34784E-01  0.17109E-01  0.13439E-01  0.11942E+00
  0.16002E+00  0.30163E+00  0.58738E+00  0.10996E+01  0.19146E+01  0.34706E+01
  0.62142E+01  0.10563E+02  0.18509E+02  0.31968E+02  0.54754E+02  0.90929E+02
  0.14939E+03  0.23505E+03  0.36348E+03  0.00000E+00  0.68112E-02  0.13694E-01
  0.20666E-01  0.36090E-01  0.50989E-01  0.63976E-01  0.74423E-01  0.82487E-01
  0.88220E-01  0.91547E-01  0.92792E-01  0.91509E-01  0.84380E-01  0.68580E-01
  0.44209E-01  0.15461E-02  0.66510E-01  0.00000E+00  0.35783E+00  0.69410E+00
  0.12873E+01  0.22067E+01  0.39356E+01  0.69280E+01  0.11576E+02  0.19980E+02
  0.34044E+02  0.57623E+02  0.94712E+02  0.15426E+03  0.24090E+03  0.37017E+03
  0.00000E+00  0.17136E-01  0.34409E-01  0.51858E-01  0.79145E-01  0.10394E+00
  0.12478E+00  0.14122E+00  0.15315E+00  0.16154E+00  0.16627E+00  0.16746E+00
  0.16493E+00  0.15399E+00  0.13097E+00  0.96487E-01  0.37859E-01  0.54738E-01
  0.19608E+00  0.36251E+00  0.84720E+00  0.15373E+01  0.25934E+01  0.45527E+01
  0.78728E+01  0.12911E+02  0.21909E+02  0.36753E+02  0.61355E+02  0.99622E+02
  0.16057E+03  0.24848E+03  0.37888E+03  0.00000E+00  0.40202E-01  0.80656E-01
  0.12146E+00  0.16871E+00  0.20986E+00  0.24272E+00  0.26735E+00  0.28466E+00
  0.29647E+00  0.30222E+00  0.30316E+00  0.29806E+00  0.28140E+00  0.24667E+00
  0.19673E+00  0.11414E+00  0.12709E-01  0.20154E+00  0.47222E+00  0.94522E+00
  0.18946E+01  0.31061E+01  0.53749E+01  0.91304E+01  0.14678E+02  0.24451E+02
  0.40307E+02  0.66229E+02  0.10601E+03  0.16876E+03  0.25832E+03  0.39023E+03
  0.00000E+00  0.11565E+00  0.23182E+00  0.34883E+00  0.45414E+00  0.53965E+00
  0.60337E+00  0.64698E+00  0.67694E+00  0.69579E+00  0.70515E+00  0.70867E+00
  0.70481E+00  0.68346E+00  0.63757E+00  0.57368E+00  0.46656E+00  0.30513E+00
  0.69596E-01  0.26007E+00  0.89325E+00  0.24832E+01  0.33550E+01  0.59450E+01
  0.10144E+02  0.16163E+02  0.26662E+02  0.43406E+02  0.70404E+02  0.11119E+03
  0.17484E+03  0.26434E+03  0.39488E+03  0.00000E+00  0.57238E+00  0.11473E+01
  0.17253E+01  0.17304E+01  0.17365E+01  0.17436E+01  0.17517E+01  0.17600E+01
  0.17678E+01  0.17724E+01  0.17737E+01  0.17700E+01  0.17446E+01  0.16885E+01
  0.16121E+01  0.14830E+01  0.12889E+01  0.10099E+01  0.63203E+00  0.11799E+00
  0.13179E+01  0.29298E+01  0.58488E+01  0.10492E+02  0.16919E+02  0.28069E+02
  0.45539E+02  0.73301E+02  0.11446E+03  0.17790E+03  0.26533E+03  0.39114E+03
  0.00000E+00  0.10911E+01  0.21861E+01  0.32854E+01  0.32931E+01  0.33022E+01
  0.33128E+01  0.33246E+01  0.33367E+01  0.33477E+01  0.33536E+01  0.33540E+01
  0.33468E+01  0.33061E+01  0.32195E+01  0.31047E+01  0.29151E+01  0.26375E+01
  0.22503E+01  0.17446E+01  0.74931E+00  0.80000E+00  0.27935E+01  0.63524E+01
  0.11857E+02  0.19175E+02  0.31695E+02  0.50845E+02  0.80679E+02  0.12391E+03
  0.18951E+03  0.27799E+03  0.40350E+03  0.00000E+00  0.20806E+01  0.41673E+01
  0.62604E+01  0.62718E+01  0.62854E+01  0.63010E+01  0.63185E+01  0.63359E+01
  0.63514E+01  0.63584E+01  0.63564E+01  0.63424E+01  0.62766E+01  0.61409E+01
  0.59650E+01  0.56807E+01  0.52743E+01  0.47231E+01  0.40276E+01  0.26715E+01
  0.61725E+00  0.19114E+01  0.63609E+01  0.13039E+02  0.21532E+02  0.35848E+02
  0.57160E+02  0.89617E+02  0.13540E+03  0.20361E+03  0.29317E+03  0.41801E+03
  0.00000E+00  0.39691E+01  0.79476E+01  0.11935E+02  0.11953E+02  0.11973E+02
  0.11996E+02  0.12022E+02  0.12047E+02  0.12068E+02  0.12075E+02  0.12068E+02
  0.12042E+02  0.11934E+02  0.11719E+02  0.11445E+02  0.11012E+02  0.10405E+02
  0.96012E+01  0.86193E+01  0.67243E+01  0.39286E+01  0.63628E+00  0.50725E+01
  0.13378E+02  0.23433E+02  0.40128E+02  0.64237E+02  0.10002E+03  0.14892E+03
  0.22022E+03  0.31074E+03  0.43421E+03  0.00000E+00  0.75726E+01  0.15160E+02
  0.22761E+02  0.22786E+02  0.22816E+02  0.22850E+02  0.22888E+02  0.22924E+02
  0.22953E+02  0.22959E+02  0.22941E+02  0.22891E+02  0.22715E+02  0.22371E+02
  0.21940E+02  0.21268E+02  0.20346E+02  0.19151E+02  0.17730E+02  0.15020E+02
  0.11119E+02  0.67180E+01  0.80052E+00  0.11394E+02  0.23559E+02  0.43440E+02
  0.71194E+02  0.11121E+03  0.16387E+03  0.23873E+03  0.32982E+03  0.45067E+03
  0.00000E+00  0.14450E+02  0.28924E+02  0.43416E+02  0.43454E+02  0.43499E+02
  0.43549E+02  0.43604E+02  0.43655E+02  0.43694E+02  0.43695E+02  0.43656E+02
  0.43566E+02  0.43275E+02  0.42723E+02  0.42037E+02  0.40986E+02  0.39563E+02
  0.37753E+02  0.35653E+02  0.31692E+02  0.26122E+02  0.20084E+02  0.99226E+01
  0.39440E+01  0.19000E+02  0.43212E+02  0.75768E+02  0.12120E+03  0.17835E+03
  0.25718E+03  0.34791E+03  0.46401E+03  0.00000E+00  0.27580E+02  0.55196E+02
  0.82839E+02  0.82896E+02  0.82962E+02  0.83036E+02  0.83115E+02  0.83187E+02
  0.83238E+02  0.83226E+02  0.83148E+02  0.82987E+02  0.82506E+02  0.81615E+02
  0.80516E+02  0.78855E+02  0.76637E+02  0.73855E+02  0.70690E+02  0.64793E+02
  0.56669E+02  0.48176E+02  0.34092E+02  0.15464E+02  0.36272E+01  0.33820E+02
  0.72783E+02  0.12518E+03  0.18763E+03  0.27067E+03  0.35927E+03  0.46701E+03
  0.00000E+00  0.52649E+02  0.10536E+03  0.15810E+03  0.15818E+03  0.15828E+03
  0.15839E+03  0.15851E+03  0.15861E+03  0.15867E+03  0.15863E+03  0.15848E+03
  0.15820E+03  0.15740E+03  0.15596E+03  0.15419E+03  0.15155E+03  0.14806E+03
  0.14373E+03  0.13888E+03  0.12996E+03  0.11789E+03  0.10566E+03  0.85669E+02
  0.60001E+02  0.35169E+02  0.34362E+01  0.51086E+02  0.11256E+03  0.18115E+03
  0.26829E+03  0.35156E+03  0.44505E+03  0.00000E+00  0.10050E+03  0.20110E+03
  0.30175E+03  0.30187E+03  0.30202E+03  0.30218E+03  0.30234E+03  0.30248E+03
  0.30256E+03  0.30246E+03  0.30219E+03  0.30169E+03  0.30038E+03  0.29804E+03
  0.29518E+03  0.29096E+03  0.28542E+03  0.27863E+03  0.27110E+03  0.25742E+03
  0.23920E+03  0.22121E+03  0.19223E+03  0.15600E+03  0.12284E+03  0.72195E+02
  0.12558E+02  0.60898E+02  0.13648E+03  0.22694E+03  0.29940E+03  0.36907E+03
  0.00000E+00  0.19188E+03  0.38392E+03  0.57601E+03  0.57620E+03  0.57641E+03
  0.57664E+03  0.57688E+03  0.57707E+03  0.57715E+03  0.57695E+03  0.57645E+03
  0.57559E+03  0.57343E+03  0.56963E+03  0.56501E+03  0.55823E+03  0.54941E+03
  0.53866E+03  0.52685E+03  0.50564E+03  0.47775E+03  0.45081E+03  0.40795E+03
  0.35566E+03  0.31019E+03  0.24197E+03  0.16544E+03  0.75875E+02  0.75115E+01
  0.99439E+02  0.15198E+03  0.18253E+03
