  0.00000E+00  0.00000E+00  0.00000E+00  0.00000E+00  0.00000E+00  0.00000E+00
  0.00000E+00  0.00000E+00  0.00000E+00  0.00000E+00  0.00000E+00  0.00000E+00
  0.00000E+00  0.00000E+00  0.00000E+00  0.00000E+00  0.00000E+00  0.00000E+00
  0.00000E+00  0.00000E+00  0.00000E+00  0.00000E+00  0.00000E+00  0.00000E+00
  0.00000E+00  0.00000E+00  0.00000E+00  0.00000E+00  0.00000E+00  0.00000E+00
  0.00000E+00  0.00000E+00  0.00000E+00  0.00000E+00  0.00000E+00  0.00000E+00
  0.00000E+00  0.00000E+00  0.00000E+00  0.00000E+00  0.00000E+00  0.00000E+00
  0.00000E+00  0.00000E+00  0.00000E+00  0.00000E+00  0.00000E+00  0.00000E+00
  0.00000E+00  0.00000E+00  0.00000E+00  0.00000E+00  0.00000E+00  0.00000E+00
  0.00000E+00  0.00000E+00  0.00000E+00  0.00000E+00  0.00000E+00  0.00000E+00
  0.00000E+00  0.00000E+00  0.00000E+00  0.00000E+00  0.00000E+00  0.00000E+00
  0.00000E+00  0.00000E+00  0.00000E+00  0.00000E+00  0.00000E+00  0.00000E+00
  0.00000E+00  0.00000E+00  0.00000E+00  0.00000E+00  0.00000E+00  0.00000E+00
  0.00000E+00  0.00000E+00  0.00000E+00  0.00000E+00  0.00000E+00  0.00000E+00
  0.00000E+00  0.00000E+00  0.00000E+00  0.00000E+00  0.00000E+00  0.00000E+00
  0.00000E+00  0.00000E+00  0.00000E+00  0.00000E+00  0.00000E+00  0.00000E+00
  0.00000E+00  0.00000E+00  0.00000E+00  0.00000E+00  0.00000E+00  0.00000E+00
  0.00000E+00  0.00000E+00  0.00000E+00  0.00000E+00  0.00000E+00  0.00000E+00
  0.00000E+00  0.64197E-08  0.49522E-06  0.24409E-05  0.96318E-05  0.33984E-04
  0.10597E-03  0.31682E-03  0.88644E-03  0.18538E-02  0.37735E-02  0.81290E-02
  0.17196E-01  0.34657E-01  0.72645E-01  0.15029E+00  0.27994E+00  0.52612E+00
  0.96476E+00  0.17371E+01  0.30102E+01  0.51220E+01  0.83074E+01  0.13178E+02
  0.00000E+00  0.00000E+00  0.00000E+00  0.00000E+00  0.00000E+00  0.00000E+00
  0.00000E+00  0.00000E+00  0.00000E+00  0.00000E+00  0.15907E-07  0.12089E-05
  0.58806E-05  0.22943E-04  0.80179E-04  0.24799E-03  0.73650E-03  0.20494E-02
  0.42668E-02  0.86539E-02  0.18588E-01  0.39230E-01  0.78916E-01  0.16516E+00
  0.34128E+00  0.63508E+00  0.11927E+01  0.21857E+01  0.39337E+01  0.68138E+01
  0.11590E+02  0.18794E+02  0.29806E+02  0.00000E+00  0.00000E+00  0.00000E+00
  0.00000E+00  0.00000E+00  0.00000E+00  0.00000E+00  0.00000E+00  0.00000E+00
  0.00000E+00  0.53447E-07  0.39970E-05  0.19157E-04  0.73781E-04  0.25496E-03
  0.78102E-03  0.23010E-02  0.63612E-02  0.13200E-01  0.26651E-01  0.56705E-01
  0.11982E+00  0.24105E+00  0.50200E+00  0.10339E+01  0.19255E+01  0.36126E+01
  0.66153E+01  0.11898E+02  0.20600E+02  0.35028E+02  0.56781E+02  0.90028E+02
  0.00000E+00  0.00000E+00  0.00000E+00  0.00000E+00  0.00000E+00  0.00000E+00
  0.00000E+00  0.00000E+00  0.00000E+00  0.00000E+00  0.92830E-07  0.70578E-05
  0.33907E-04  0.13035E-03  0.44805E-03  0.13624E-02  0.39852E-02  0.10945E-01
  0.22592E-01  0.45386E-01  0.96070E-01  0.20226E+00  0.40579E+00  0.84415E+00
  0.17348E+01  0.32274E+01  0.60483E+01  0.11065E+02  0.19887E+02  0.34410E+02
  0.58481E+02  0.94760E+02  0.15020E+03  0.00000E+00  0.00000E+00  0.00000E+00
  0.00000E+00  0.00000E+00  0.00000E+00  0.00000E+00  0.00000E+00  0.00000E+00
  0.00000E+00  0.13284E-06  0.10098E-04  0.47989E-04  0.18209E-03  0.61697E-03
  0.18491E-02  0.53393E-02  0.14499E-01  0.29637E-01  0.59056E-01  0.12421E+00
  0.26012E+00  0.51953E+00  0.10767E+01  0.22064E+01  0.40947E+01  0.76592E+01
  0.13991E+02  0.25116E+02  0.43415E+02  0.73728E+02  0.11939E+03  0.18914E+03
  0.00000E+00  0.00000E+00  0.00000E+00  0.00000E+00  0.00000E+00  0.00000E+00
  0.00000E+00  0.00000E+00  0.00000E+00  0.00000E+00  0.17128E-06  0.13917E-04
  0.67412E-04  0.25689E-03  0.86517E-03  0.25627E-02  0.73108E-02  0.19622E-01
  0.39681E-01  0.78337E-01  0.16356E+00  0.34035E+00  0.67608E+00  0.13947E+01
  0.28482E+01  0.52698E+01  0.98342E+01  0.17930E+02  0.32138E+02  0.55485E+02
  0.94131E+02  0.15230E+03  0.24112E+03  0.00000E+00  0.00000E+00  0.00000E+00
  0.00000E+00  0.00000E+00  0.00000E+00  0.00000E+00  0.00000E+00  0.00000E+00
  0.00000E+00  0.21640E-06  0.18013E-04  0.86971E-04  0.32526E-03  0.10750E-02
  0.31138E-02  0.87064E-02  0.22941E-01  0.45673E-01  0.88968E-01  0.18371E+00
  0.37876E+00  0.74660E+00  0.15305E+01  0.31097E+01  0.57301E+01  0.10658E+02
  0.19380E+02  0.34661E+02  0.59738E+02  0.10121E+03  0.16357E+03  0.25872E+03
  0.00000E+00  0.00000E+00  0.00000E+00  0.00000E+00  0.00000E+00  0.00000E+00
  0.00000E+00  0.00000E+00  0.00000E+00  0.00000E+00  0.26250E-06  0.23616E-04
  0.11581E-03  0.42847E-03  0.13938E-02  0.39455E-02  0.10793E-01  0.27846E-01
  0.54430E-01  0.10433E+00  0.21253E+00  0.43316E+00  0.84555E+00  0.17195E+01
  0.34711E+01  0.63622E+01  0.11782E+02  0.21350E+02  0.38078E+02  0.65478E+02
  0.11073E+03  0.17870E+03  0.28232E+03  0.00000E+00  0.00000E+00  0.00000E+00
  0.00000E+00  0.00000E+00  0.00000E+00  0.00000E+00  0.00000E+00  0.00000E+00
  0.00000E+00  0.17202E-06  0.25105E-04  0.13639E-03  0.52544E-03  0.17141E-02
  0.47956E-02  0.12896E-01  0.32660E-01  0.62576E-01  0.11769E+00  0.23579E+00
  0.47347E+00  0.91174E+00  0.18316E+01  0.36572E+01  0.66846E+01  0.12370E+02
  0.22316E+02  0.39660E+02  0.68000E+02  0.11473E+03  0.18479E+03  0.29148E+03
  0.00000E+00  0.00000E+00  0.00000E+00  0.00000E+00  0.00000E+00  0.00000E+00
  0.00000E+00  0.00000E+00  0.00000E+00  0.00000E+00  0.54447E-07  0.25441E-04
  0.16599E-03  0.67652E-03  0.22171E-02  0.61242E-02  0.16148E-01  0.40015E-01
  0.74853E-01  0.13757E+00  0.26995E+00  0.53198E+00  0.10068E+01  0.19911E+01
  0.39198E+01  0.71373E+01  0.13191E+02  0.23659E+02  0.41846E+02  0.71471E+02
  0.12020E+03  0.19312E+03  0.30399E+03  0.00000E+00  0.00000E+00  0.00000E+00
  0.00000E+00  0.00000E+00  0.00000E+00  0.00000E+00  0.46699E-05  0.43742E-05
  0.37050E-05  0.28039E-05  0.63698E-05  0.16156E-03  0.84590E-03  0.30385E-02
  0.86141E-02  0.22780E-01  0.52857E-01  0.96158E-01  0.17157E+00  0.32707E+00
  0.62574E+00  0.11491E+01  0.22054E+01  0.42120E+01  0.75347E+01  0.13745E+02
  0.24469E+02  0.43016E+02  0.73102E+02  0.12245E+03  0.19607E+03  0.30779E+03
  0.00000E+00  0.00000E+00  0.00000E+00  0.00000E+00  0.00000E+00  0.00000E+00
  0.00000E+00  0.24428E-04  0.23356E-04  0.20962E-04  0.16076E-04  0.39513E-04
  0.12214E-03  0.10699E-02  0.43692E-02  0.12825E-01  0.34102E-01  0.73956E-01
  0.13056E+00  0.22540E+00  0.41571E+00  0.76820E+00  0.13609E+01  0.25175E+01
  0.46283E+01  0.80938E+01  0.14517E+02  0.25596E+02  0.44640E+02  0.75366E+02
  0.12557E+03  0.20018E+03  0.31312E+03  0.14872E-05  0.16249E-05  0.17994E-05
  0.20188E-05  0.25554E-05  0.37618E-05  0.65629E-04  0.12688E-02  0.23732E-02
  0.26491E-02  0.21849E-02  0.15013E-03  0.00000E+00  0.31864E-02  0.10108E-01
  0.23249E-01  0.50319E-01  0.98452E-01  0.16949E+00  0.28446E+00  0.51019E+00
  0.91683E+00  0.15805E+01  0.28505E+01  0.51175E+01  0.87820E+01  0.15507E+02
  0.27009E+02  0.46626E+02  0.78053E+02  0.12914E+03  0.20470E+03  0.31868E+03
  0.75596E-04  0.82479E-04  0.91183E-04  0.10213E-03  0.12909E-03  0.18985E-03
  0.48888E-03  0.30574E-02  0.55473E-02  0.63226E-02  0.57092E-02  0.13755E-02
  0.18424E-02  0.25906E-02  0.12745E-01  0.31179E-01  0.67906E-01  0.13127E+00
  0.22193E+00  0.36359E+00  0.63592E+00  0.11130E+01  0.18685E+01  0.32883E+01
  0.57722E+01  0.97060E+01  0.16841E+02  0.28892E+02  0.49244E+02  0.81555E+02
  0.13374E+03  0.21042E+03  0.32559E+03  0.36854E-03  0.40164E-03  0.44343E-03
  0.49594E-03  0.62603E-03  0.91948E-03  0.20126E-02  0.71432E-02  0.12423E-01
  0.14285E-01  0.13745E-01  0.63076E-02  0.51276E-02  0.00000E+00  0.15642E-01
  0.42687E-01  0.94564E-01  0.18138E+00  0.30210E+00  0.48378E+00  0.82518E+00
  0.14051E+01  0.22920E+01  0.39246E+01  0.67133E+01  0.11021E+02  0.18723E+02
  0.31532E+02  0.52895E+02  0.86422E+02  0.14012E+03  0.21837E+03  0.33525E+03
  0.14062E-02  0.15312E-02  0.16889E-02  0.18871E-02  0.23800E-02  0.34933E-02
  0.71949E-02  0.17383E-01  0.28787E-01  0.33328E-01  0.34133E-01  0.24573E-01
  0.10895E-01  0.10140E-01  0.14729E-01  0.55678E-01  0.13106E+00  0.25373E+00
  0.42074E+00  0.66267E+00  0.11071E+01  0.18376E+01  0.29129E+01  0.48480E+01
  0.80641E+01  0.12888E+02  0.21368E+02  0.35208E+02  0.57937E+02  0.93095E+02
  0.14882E+03  0.22915E+03  0.34827E+03  0.44393E-02  0.47758E-02  0.52369E-02
  0.59446E-02  0.81901E-02  0.13117E-01  0.24113E-01  0.44283E-01  0.64782E-01
  0.75022E-01  0.79663E-01  0.71916E-01  0.35923E-01  0.34603E-01  0.48764E-02
  0.68497E-01  0.18167E+00  0.36383E+00  0.60471E+00  0.94076E+00  0.15440E+01
  0.25024E+01  0.38561E+01  0.62331E+01  0.10064E+02  0.15617E+02  0.25189E+02
  0.40462E+02  0.65081E+02  0.10248E+03  0.16099E+03  0.24419E+03  0.36646E+03
  0.22271E-01  0.23572E-01  0.25640E-01  0.29733E-01  0.45546E-01  0.80934E-01
  0.13680E+00  0.21597E+00  0.27036E+00  0.31029E+00  0.33352E+00  0.32713E+00
  0.28790E+00  0.19332E+00  0.43172E-01  0.76873E-01  0.36209E+00  0.78763E+00
  0.13360E+01  0.20516E+01  0.32817E+01  0.51128E+01  0.74922E+01  0.11463E+02
  0.17450E+02  0.25471E+02  0.38688E+02  0.58652E+02  0.89362E+02  0.13390E+03
  0.20121E+03  0.29346E+03  0.42572E+03  0.79237E-01  0.85092E-01  0.92525E-01
  0.10207E+00  0.12297E+00  0.20787E+00  0.32755E+00  0.51282E+00  0.64576E+00
  0.73612E+00  0.79352E+00  0.79658E+00  0.74204E+00  0.58382E+00  0.28037E+00
  0.26071E-01  0.44240E+00  0.12214E+01  0.21748E+01  0.33780E+01  0.54005E+01
  0.83063E+01  0.11903E+02  0.17729E+02  0.26149E+02  0.36844E+02  0.53946E+02
  0.78777E+02  0.11567E+03  0.16727E+03  0.24315E+03  0.34401E+03  0.48566E+03
  0.20860E+00  0.22703E+00  0.24967E+00  0.27621E+00  0.39741E+00  0.53980E+00
  0.77298E+00  0.11956E+01  0.15255E+01  0.17295E+01  0.18402E+01  0.18896E+01
  0.17836E+01  0.15053E+01  0.96875E+00  0.11746E+00  0.45444E+00  0.18680E+01
  0.35835E+01  0.56895E+01  0.91620E+01  0.13999E+02  0.19725E+02  0.28749E+02
  0.41264E+02  0.56305E+02  0.79628E+02  0.11206E+03  0.15842E+03  0.22057E+03
  0.30906E+03  0.42229E+03  0.57733E+03  0.52326E+00  0.53835E+00  0.56745E+00
  0.63902E+00  0.93742E+00  0.12384E+01  0.17292E+01  0.26560E+01  0.34386E+01
  0.38521E+01  0.40775E+01  0.42104E+01  0.40022E+01  0.34778E+01  0.23942E+01
  0.45529E+00  0.32006E+00  0.28876E+01  0.60600E+01  0.98711E+01  0.16053E+02
  0.24445E+02  0.34005E+02  0.48701E+02  0.68320E+02  0.90653E+02  0.12424E+03
  0.16891E+03  0.23013E+03  0.30834E+03  0.41570E+03  0.54686E+03  0.72108E+03
  0.11169E+01  0.11489E+01  0.12109E+01  0.13634E+01  0.19999E+01  0.26417E+01
  0.36884E+01  0.56657E+01  0.73380E+01  0.82278E+01  0.87271E+01  0.90444E+01
  0.86522E+01  0.76344E+01  0.54678E+01  0.11766E+01  0.20582E+00  0.45318E+01
  0.10516E+02  0.17587E+02  0.28907E+02  0.43957E+02  0.60568E+02  0.85564E+02
  0.11783E+03  0.15274E+03  0.20377E+03  0.26864E+03  0.35377E+03  0.45696E+03
  0.59295E+03  0.75017E+03  0.95165E+03  0.22874E+01  0.23529E+01  0.24795E+01
  0.27915E+01  0.40940E+01  0.54071E+01  0.75483E+01  0.11593E+02  0.15015E+02
  0.16838E+02  0.17870E+02  0.18541E+02  0.17777E+02  0.15777E+02  0.11473E+02
  0.25790E+01  0.11990E+01  0.77895E+01  0.19243E+02  0.32612E+02  0.53791E+02
  0.81497E+02  0.11132E+03  0.15542E+03  0.21075E+03  0.26798E+03  0.34950E+03
  0.44874E+03  0.57353E+03  0.71660E+03  0.89702E+03  0.10925E+04  0.13329E+04
  0.47611E+01  0.48971E+01  0.51603E+01  0.58093E+01  0.85195E+01  0.11252E+02
  0.15708E+02  0.24128E+02  0.31258E+02  0.35076E+02  0.37275E+02  0.38765E+02
  0.37310E+02  0.33406E+02  0.24806E+02  0.58841E+01  0.46783E+01  0.12310E+02
  0.34418E+02  0.59992E+02  0.10019E+03  0.15214E+03  0.20698E+03  0.28695E+03
  0.38501E+03  0.48263E+03  0.61856E+03  0.77768E+03  0.96971E+03  0.11777E+04
  0.14281E+04  0.16798E+04  0.19744E+04  0.95600E+01  0.98328E+01  0.10361E+02
  0.11663E+02  0.17102E+02  0.22586E+02  0.31527E+02  0.48424E+02  0.62729E+02
  0.70390E+02  0.74814E+02  0.77836E+02  0.74973E+02  0.67274E+02  0.50234E+02
  0.12088E+02  0.10685E+02  0.22195E+02  0.65183E+02  0.11459E+03  0.19179E+03
  0.29064E+03  0.39349E+03  0.54185E+03  0.72052E+03  0.89290E+03  0.11285E+04
  0.13949E+04  0.17047E+04  0.20222E+04  0.23867E+04  0.27228E+04  0.30945E+04
  0.19513E+02  0.20070E+02  0.21146E+02  0.23804E+02  0.34906E+02  0.46097E+02
  0.64349E+02  0.98843E+02  0.12807E+03  0.14377E+03  0.15293E+03  0.15933E+03
  0.15383E+03  0.13873E+03  0.10479E+03  0.25912E+02  0.26959E+02  0.36242E+02
  0.12019E+03  0.21621E+03  0.36561E+03  0.55564E+03  0.75118E+03  0.10310E+04
  0.13633E+04  0.16761E+04  0.20971E+04  0.25597E+04  0.30803E+04  0.35867E+04
  0.41414E+04  0.46061E+04  0.50853E+04  0.39149E+02  0.40264E+02  0.42423E+02
  0.47753E+02  0.70023E+02  0.92471E+02  0.12908E+03  0.19828E+03  0.25692E+03
  0.28846E+03  0.30694E+03  0.31996E+03  0.30920E+03  0.27948E+03  0.21220E+03
  0.53099E+02  0.58876E+02  0.64039E+02  0.22849E+03  0.41597E+03  0.70676E+03
  0.10748E+04  0.14505E+04  0.19849E+04  0.26131E+04  0.31929E+04  0.39643E+04
  0.47926E+04  0.56992E+04  0.65411E+04  0.74233E+04  0.80886E+04  0.87194E+04
  0.78537E+02  0.80773E+02  0.85103E+02  0.95795E+02  0.14047E+03  0.18550E+03
  0.25894E+03  0.39777E+03  0.51546E+03  0.57883E+03  0.61615E+03  0.64268E+03
  0.62170E+03  0.56320E+03  0.42976E+03  0.10877E+03  0.12748E+03  0.11195E+03
  0.43490E+03  0.80218E+03  0.13705E+04  0.20873E+04  0.28149E+04  0.38451E+04
  0.50466E+04  0.61399E+04  0.75812E+04  0.91007E+04  0.10727E+05  0.12179E+05
  0.13639E+05  0.14626E+05  0.15470E+05  0.15751E+03  0.16200E+03  0.17068E+03
  0.19212E+03  0.28172E+03  0.37203E+03  0.51935E+03  0.79782E+03  0.10340E+04
  0.11613E+04  0.12367E+04  0.12908E+04  0.12499E+04  0.11349E+04  0.87022E+03
  0.22261E+03  0.27396E+03  0.19287E+03  0.82805E+03  0.15492E+04  0.26632E+04
  0.40647E+04  0.54812E+04  0.74806E+04  0.97992E+04  0.11886E+05  0.14619E+05
  0.17460E+05  0.20449E+05  0.23029E+05  0.25535E+05  0.27051E+05  0.28194E+05
  0.31584E+03  0.32482E+03  0.34223E+03  0.38523E+03  0.56488E+03  0.74599E+03
  0.10414E+04  0.15999E+04  0.20738E+04  0.23297E+04  0.24819E+04  0.25922E+04
  0.25128E+04  0.22865E+04  0.17616E+04  0.45521E+03  0.58503E+03  0.32574E+03
  0.15764E+04  0.29945E+04  0.51828E+04  0.79307E+04  0.10699E+05  0.14599E+05
  0.19102E+05  0.23123E+05  0.28363E+05  0.33752E+05  0.39346E+05  0.44049E+05
  0.48487E+05  0.50900E+05  0.52461E+05
