  0.00000E+00  0.00000E+00  0.00000E+00  0.00000E+00  0.00000E+00  0.00000E+00
  0.00000E+00  0.00000E+00  0.00000E+00  0.00000E+00  0.00000E+00  0.00000E+00
  0.00000E+00  0.00000E+00  0.00000E+00  0.00000E+00  0.00000E+00  0.00000E+00
  0.00000E+00  0.00000E+00  0.00000E+00  0.00000E+00  0.00000E+00  0.00000E+00
  0.00000E+00  0.00000E+00  0.00000E+00  0.00000E+00  0.00000E+00  0.00000E+00
  0.00000E+00  0.00000E+00  0.00000E+00  0.00000E+00  0.29304E-10  0.44719E-09
  0.25785E-08  0.15770E-07  0.59482E-07  0.18426E-06  0.51140E-06  0.13604E-05
  0.34755E-05  0.87940E-05  0.21120E-04  0.48022E-04  0.00000E+00  0.26588E-03
  0.63809E-03  0.14383E-02  0.31025E-02  0.64803E-02  0.13052E-01  0.27505E-01
  0.57124E-01  0.11258E+00  0.22609E+00  0.44476E+00  0.82484E+00  0.15523E+01
  0.28495E+01  0.51351E+01  0.89044E+01  0.15159E+02  0.24597E+02  0.39030E+02
  0.00000E+00  0.65118E-09  0.31003E-09  0.35483E-08  0.29781E-07  0.12208E-06
  0.38923E-06  0.10884E-05  0.28933E-05  0.73492E-05  0.18467E-04  0.44025E-04
  0.99456E-04  0.00000E+00  0.54430E-03  0.13003E-02  0.29210E-02  0.62820E-02
  0.13085E-01  0.26308E-01  0.55356E-01  0.11484E+00  0.22613E+00  0.45374E+00
  0.89201E+00  0.16534E+01  0.31104E+01  0.57077E+01  0.10283E+02  0.17828E+02
  0.30345E+02  0.49232E+02  0.78111E+02  0.00000E+00  0.32626E-08  0.53656E-08
  0.22150E-08  0.30170E-07  0.16880E-06  0.59108E-06  0.17102E-05  0.45973E-05
  0.11687E-04  0.29247E-04  0.69279E-04  0.15531E-03  0.00000E+00  0.83986E-03
  0.19960E-02  0.44643E-02  0.95642E-02  0.19877E-01  0.39855E-01  0.83682E-01
  0.17329E+00  0.34079E+00  0.68313E+00  0.13419E+01  0.24857E+01  0.46737E+01
  0.85728E+01  0.15440E+02  0.26761E+02  0.45541E+02  0.73873E+02  0.11719E+03
  0.00000E+00  0.11204E-07  0.21976E-07  0.26505E-07  0.10044E-07  0.15637E-06
  0.73391E-06  0.23184E-05  0.64449E-05  0.16550E-04  0.41432E-04  0.97547E-04
  0.21713E-03  0.00000E+00  0.11592E-02  0.27381E-02  0.60905E-02  0.12994E-01
  0.26899E-01  0.53787E-01  0.11265E+00  0.23289E+00  0.45712E+00  0.91518E+00
  0.17959E+01  0.33241E+01  0.62459E+01  0.11451E+02  0.20615E+02  0.35719E+02
  0.60770E+02  0.98555E+02  0.15632E+03  0.00000E+00  0.33941E-07  0.70598E-07
  0.10278E-06  0.16904E-06  0.45743E-07  0.63373E-06  0.26844E-05  0.81964E-05
  0.21751E-04  0.55029E-04  0.12943E-03  0.28634E-03  0.00000E+00  0.15087E-02
  0.35394E-02  0.78267E-02  0.16611E-01  0.34240E-01  0.68211E-01  0.14249E+00
  0.29384E+00  0.57568E+00  0.11508E+01  0.22555E+01  0.41705E+01  0.78302E+01
  0.14346E+02  0.25815E+02  0.44709E+02  0.76041E+02  0.12329E+03  0.19551E+03
  0.00000E+00  0.96457E-07  0.20478E-06  0.31767E-06  0.64827E-06  0.77398E-06
  0.18986E-06  0.21884E-05  0.91222E-05  0.26550E-04  0.69505E-04  0.16486E-03
  0.36408E-03  0.00000E+00  0.18972E-02  0.44187E-02  0.97069E-02  0.20484E-01
  0.42001E-01  0.83327E-01  0.17345E+00  0.35666E+00  0.69734E+00  0.13914E+01
  0.27230E+01  0.50287E+01  0.94323E+01  0.17268E+02  0.31053E+02  0.53754E+02
  0.91387E+02  0.14812E+03  0.23482E+03  0.00000E+00  0.26664E-06  0.56832E-06
  0.90206E-06  0.19811E-05  0.29179E-05  0.30101E-05  0.83894E-06  0.71880E-05
  0.28629E-04  0.82516E-04  0.20181E-03  0.44914E-03  0.00000E+00  0.23323E-02
  0.53942E-02  0.11769E-01  0.24671E-01  0.50310E-01  0.99285E-01  0.20588E+00
  0.42200E+00  0.82261E+00  0.16377E+01  0.31992E+01  0.58992E+01  0.11052E+02
  0.20214E+02  0.36323E+02  0.62838E+02  0.10678E+03  0.17299E+03  0.27415E+03
  0.00000E+00  0.73756E-06  0.15674E-05  0.25032E-05  0.56544E-05  0.89425E-05
  0.11360E-04  0.11061E-04  0.34178E-05  0.21059E-04  0.86218E-04  0.23190E-03
  0.53308E-03  0.00000E+00  0.28126E-02  0.64738E-02  0.14038E-01  0.29241E-01
  0.59254E-01  0.11630E+00  0.24009E+00  0.49024E+00  0.95250E+00  0.18914E+01
  0.36868E+01  0.67862E+01  0.12696E+02  0.23194E+02  0.41639E+02  0.71979E+02
  0.12223E+03  0.19793E+03  0.31354E+03  0.00000E+00  0.19616E-05  0.41422E-05
  0.65958E-05  0.14987E-04  0.24253E-04  0.32804E-04  0.38208E-04  0.34510E-04
  0.98581E-05  0.65514E-04  0.23918E-03  0.60038E-03  0.00000E+00  0.33352E-02
  0.76696E-02  0.16557E-01  0.34276E-01  0.69013E-01  0.13464E+00  0.27659E+00
  0.56241E+00  0.10885E+01  0.21550E+01  0.41900E+01  0.76955E+01  0.14373E+02
  0.26221E+02  0.47020E+02  0.81204E+02  0.13780E+03  0.22299E+03  0.35305E+03
  0.00000E+00  0.52050E-05  0.10911E-04  0.17265E-04  0.39172E-04  0.63732E-04
  0.88156E-04  0.10911E-03  0.11893E-03  0.10297E-03  0.24230E-04  0.17338E-03
  0.59562E-03  0.00000E+00  0.38436E-02  0.89251E-02  0.19281E-01  0.39766E-01
  0.79613E-01  0.15437E+00  0.31561E+00  0.63884E+00  0.12312E+01  0.24291E+01
  0.47094E+01  0.86273E+01  0.16081E+02  0.29289E+02  0.52453E+02  0.90486E+02
  0.15341E+03  0.24805E+03  0.39246E+03  0.00000E+00  0.13777E-04  0.28675E-04
  0.45066E-04  0.10169E-03  0.16510E-03  0.22951E-03  0.29011E-03  0.33700E-03
  0.35232E-03  0.29047E-03  0.86578E-04  0.38453E-03  0.00000E+00  0.41873E-02
  0.10065E-01  0.22025E-01  0.45527E-01  0.90906E-01  0.17538E+00  0.35714E+00
  0.71989E+00  0.13809E+01  0.27149E+01  0.52470E+01  0.95840E+01  0.17824E+02
  0.32404E+02  0.57940E+02  0.99819E+02  0.16905E+03  0.27306E+03  0.43167E+03
  0.00000E+00  0.36605E-04  0.75677E-04  0.11810E-03  0.26478E-03  0.42741E-03
  0.59279E-03  0.75298E-03  0.89486E-03  0.99739E-03  0.10057E-02  0.84751E-03
  0.37402E-03  0.00000E+00  0.39541E-02  0.10587E-01  0.24218E-01  0.50910E-01
  0.10210E+00  0.19671E+00  0.40010E+00  0.80420E+00  0.15362E+01  0.30104E+01
  0.58001E+01  0.10560E+02  0.19593E+02  0.35546E+02  0.63450E+02  0.10914E+03
  0.18461E+03  0.29783E+03  0.47032E+03  0.00000E+00  0.94251E-04  0.19369E-03
  0.30025E-03  0.66857E-03  0.10715E-02  0.14769E-02  0.18693E-02  0.22306E-02
  0.25373E-02  0.27251E-02  0.27187E-02  0.23377E-02  0.00000E+00  0.24036E-02
  0.96291E-02  0.24911E-01  0.54893E-01  0.11214E+00  0.21719E+00  0.44345E+00
  0.89104E+00  0.16965E+01  0.33158E+01  0.63698E+01  0.11558E+02  0.21390E+02
  0.38718E+02  0.68980E+02  0.11844E+03  0.20004E+03  0.32224E+03  0.50818E+03
  0.00000E+00  0.22052E-03  0.45091E-03  0.69477E-03  0.15367E-02  0.24439E-02
  0.33419E-02  0.41971E-02  0.49822E-02  0.56705E-02  0.61873E-02  0.64586E-02
  0.62577E-02  0.00000E+00  0.10771E-02  0.66744E-02  0.23847E-01  0.57679E-01
  0.12192E+00  0.23881E+00  0.49106E+00  0.98747E+00  0.18728E+01  0.36491E+01
  0.69848E+01  0.12620E+02  0.23280E+02  0.42017E+02  0.74672E+02  0.12793E+03
  0.21564E+03  0.34672E+03  0.54586E+03  0.00000E+00  0.72489E-03  0.14756E-02
  0.22619E-02  0.39983E-02  0.57268E-02  0.73534E-02  0.88237E-02  0.10142E-01
  0.11300E-01  0.12237E-01  0.12902E-01  0.13118E-01  0.11705E-01  0.00000E+00
  0.92204E-03  0.19368E-01  0.55859E-01  0.12447E+00  0.24779E+00  0.51297E+00
  0.10316E+01  0.19425E+01  0.37673E+01  0.71738E+01  0.12887E+02  0.23667E+02
  0.42546E+02  0.75356E+02  0.12871E+03  0.21640E+03  0.34712E+03  0.54534E+03
  0.00000E+00  0.17840E-02  0.36193E-02  0.55243E-02  0.89709E-02  0.12248E-01
  0.15201E-01  0.17797E-01  0.20049E-01  0.22030E-01  0.23671E-01  0.24971E-01
  0.25779E-01  0.24643E-01  0.19875E-01  0.00000E+00  0.91017E-02  0.48607E-01
  0.12234E+00  0.25308E+00  0.53486E+00  0.10812E+01  0.20238E+01  0.39093E+01
  0.74042E+01  0.13215E+02  0.24143E+02  0.43197E+02  0.76200E+02  0.12967E+03
  0.21734E+03  0.34758E+03  0.54464E+03  0.00000E+00  0.42826E-02  0.86630E-02
  0.13177E-01  0.19498E-01  0.25326E-01  0.30303E-01  0.34508E-01  0.38127E-01
  0.41215E-01  0.43725E-01  0.45863E-01  0.47334E-01  0.46420E-01  0.41115E-01
  0.30393E-01  0.34493E-02  0.36478E-01  0.11775E+00  0.25944E+00  0.56578E+00
  0.11493E+01  0.21411E+01  0.41134E+01  0.77355E+01  0.13691E+02  0.24844E+02
  0.44176E+02  0.77511E+02  0.13126E+03  0.21913E+03  0.34913E+03  0.54530E+03
  0.00000E+00  0.10012E-01  0.20205E-01  0.30645E-01  0.41765E-01  0.51513E-01
  0.59481E-01  0.66041E-01  0.71519E-01  0.76127E-01  0.79934E-01  0.83080E-01
  0.85393E-01  0.84642E-01  0.78233E-01  0.65910E-01  0.38616E-01  0.12107E-01
  0.10464E+00  0.26121E+00  0.59965E+00  0.12372E+01  0.22930E+01  0.43817E+01
  0.81740E+01  0.14326E+02  0.25782E+02  0.45498E+02  0.79302E+02  0.13349E+03
  0.22173E+03  0.35164E+03  0.54700E+03  0.00000E+00  0.22416E-01  0.45155E-01
  0.68331E-01  0.87317E-01  0.10322E+00  0.11594E+00  0.12604E+00  0.13402E+00
  0.14096E+00  0.14630E+00  0.15105E+00  0.15449E+00  0.15399E+00  0.14596E+00
  0.13100E+00  0.98026E-01  0.37066E-01  0.69280E-01  0.26731E+00  0.62710E+00
  0.13330E+01  0.24745E+01  0.47146E+01  0.87273E+01  0.15131E+02  0.26980E+02
  0.47191E+02  0.81606E+02  0.13638E+03  0.22513E+03  0.35500E+03  0.54948E+03
  0.00000E+00  0.48941E-01  0.98468E-01  0.14872E+00  0.18102E+00  0.20705E+00
  0.22741E+00  0.24302E+00  0.25567E+00  0.26606E+00  0.27440E+00  0.28115E+00
  0.28685E+00  0.28659E+00  0.27658E+00  0.25847E+00  0.21806E+00  0.14478E+00
  0.19653E-01  0.18176E+00  0.62878E+00  0.14061E+01  0.26559E+01  0.50847E+01
  0.93702E+01  0.16079E+02  0.28403E+02  0.49209E+02  0.84345E+02  0.13978E+03
  0.22907E+03  0.35871E+03  0.55185E+03  0.00000E+00  0.10650E+00  0.21396E+00
  0.32274E+00  0.37818E+00  0.42171E+00  0.45361E+00  0.47906E+00  0.49821E+00
  0.51454E+00  0.52689E+00  0.53829E+00  0.54718E+00  0.54856E+00  0.53664E+00
  0.51427E+00  0.46588E+00  0.37763E+00  0.23027E+00  0.00000E+00  0.50273E+00
  0.14146E+01  0.27734E+01  0.54316E+01  0.10046E+02  0.17108E+02  0.29989E+02
  0.51474E+02  0.87415E+02  0.14352E+03  0.23324E+03  0.36223E+03  0.55312E+03
  0.00000E+00  0.21849E+00  0.43864E+00  0.66081E+00  0.74779E+00  0.81251E+00
  0.85847E+00  0.89294E+00  0.92021E+00  0.94151E+00  0.95884E+00  0.97412E+00
  0.98479E+00  0.98402E+00  0.96573E+00  0.93521E+00  0.86719E+00  0.75041E+00
  0.56277E+00  0.28118E+00  0.33079E+00  0.13994E+01  0.29675E+01  0.59748E+01
  0.11086E+02  0.18697E+02  0.32438E+02  0.55009E+02  0.92307E+02  0.14977E+03
  0.24084E+03  0.37025E+03  0.56027E+03  0.00000E+00  0.58239E+00  0.11683E+01
  0.17584E+01  0.17658E+01  0.17748E+01  0.17856E+01  0.17983E+01  0.18127E+01
  0.18284E+01  0.18433E+01  0.18576E+01  0.18706E+01  0.18668E+01  0.18377E+01
  0.17937E+01  0.17024E+01  0.15502E+01  0.13134E+01  0.97198E+00  0.22340E+00
  0.10512E+01  0.28531E+01  0.62806E+01  0.11980E+02  0.20205E+02  0.34917E+02
  0.58676E+02  0.97402E+02  0.15613E+03  0.24823E+03  0.37714E+03  0.56454E+03
  0.00000E+00  0.10850E+01  0.21753E+01  0.32717E+01  0.32825E+01  0.32956E+01
  0.33113E+01  0.33297E+01  0.33502E+01  0.33722E+01  0.33925E+01  0.34113E+01
  0.34276E+01  0.34177E+01  0.33700E+01  0.33021E+01  0.31684E+01  0.29544E+01
  0.26348E+01  0.21946E+01  0.12343E+01  0.35462E+00  0.25031E+01  0.65419E+01
  0.13086E+02  0.22187E+02  0.38280E+02  0.63741E+02  0.10455E+03  0.16527E+03
  0.25928E+03  0.38849E+03  0.57408E+03  0.00000E+00  0.20630E+01  0.41340E+01
  0.62141E+01  0.62302E+01  0.62498E+01  0.62730E+01  0.63003E+01  0.63305E+01
  0.63625E+01  0.63912E+01  0.64171E+01  0.64386E+01  0.64198E+01  0.63443E+01
  0.62413E+01  0.60457E+01  0.57432E+01  0.53079E+01  0.47349E+01  0.34837E+01
  0.14696E+01  0.11259E+01  0.59601E+01  0.13580E+02  0.23740E+02  0.41510E+02
  0.68978E+02  0.11219E+03  0.17501E+03  0.27082E+03  0.39947E+03  0.58145E+03
  0.00000E+00  0.39511E+01  0.79145E+01  0.11892E+02  0.11916E+02  0.11945E+02
  0.11980E+02  0.12021E+02  0.12066E+02  0.12113E+02  0.12154E+02  0.12190E+02
  0.12218E+02  0.12184E+02  0.12064E+02  0.11906E+02  0.11615E+02  0.11179E+02
  0.10573E+02  0.98107E+01  0.81425E+01  0.55300E+01  0.23328E+01  0.35743E+01
  0.12615E+02  0.24093E+02  0.43965E+02  0.73879E+02  0.11993E+03  0.18506E+03
  0.28260E+03  0.40974E+03  0.58608E+03  0.00000E+00  0.75607E+01  0.15140E+02
  0.22740E+02  0.22777E+02  0.22821E+02  0.22873E+02  0.22934E+02  0.23000E+02
  0.23069E+02  0.23127E+02  0.23176E+02  0.23212E+02  0.23150E+02  0.22955E+02
  0.22705E+02  0.22262E+02  0.21615E+02  0.20744E+02  0.19696E+02  0.17406E+02
  0.13920E+02  0.98756E+01  0.24687E+01  0.85109E+01  0.21693E+02  0.44284E+02
  0.77267E+02  0.12679E+03  0.19451E+03  0.29376E+03  0.41819E+03  0.58645E+03
  0.00000E+00  0.14389E+02  0.28808E+02  0.43256E+02  0.43311E+02  0.43377E+02
  0.43454E+02  0.43544E+02  0.43641E+02  0.43739E+02  0.43819E+02  0.43881E+02
  0.43921E+02  0.43805E+02  0.43481E+02  0.43075E+02  0.42378E+02  0.41387E+02
  0.40093E+02  0.38591E+02  0.35344E+02  0.30539E+02  0.25253E+02  0.15677E+02
  0.19594E+01  0.13511E+02  0.39735E+02  0.76689E+02  0.13057E+03  0.20126E+03
  0.30219E+03  0.42233E+03  0.57936E+03  0.00000E+00  0.27714E+02  0.55476E+02
  0.83279E+02  0.83362E+02  0.83462E+02  0.83579E+02  0.83714E+02  0.83858E+02
  0.84002E+02  0.84114E+02  0.84197E+02  0.84241E+02  0.84037E+02  0.83509E+02
  0.82858E+02  0.81765E+02  0.80246E+02  0.78308E+02  0.76135E+02  0.71467E+02
  0.64734E+02  0.57710E+02  0.45096E+02  0.27650E+02  0.93310E+01  0.21446E+02
  0.63074E+02  0.12174E+03  0.19470E+03  0.29552E+03  0.40669E+03  0.54470E+03
  0.00000E+00  0.52589E+02  0.10525E+03  0.15797E+03  0.15810E+03  0.15824E+03
  0.15842E+03  0.15862E+03  0.15882E+03  0.15903E+03  0.15917E+03  0.15926E+03
  0.15929E+03  0.15891E+03  0.15802E+03  0.15694E+03  0.15516E+03  0.15275E+03
  0.14973E+03  0.14642E+03  0.13945E+03  0.12965E+03  0.11989E+03  0.10260E+03
  0.79540E+02  0.57059E+02  0.19749E+02  0.28370E+02  0.93451E+02  0.16909E+03
  0.26919E+03  0.36767E+03  0.48006E+03  0.00000E+00  0.10122E+03  0.20256E+03
  0.30398E+03  0.30417E+03  0.30439E+03  0.30465E+03  0.30494E+03  0.30525E+03
  0.30555E+03  0.30574E+03  0.30585E+03  0.30584E+03  0.30519E+03  0.30372E+03
  0.30195E+03  0.29911E+03  0.29530E+03  0.29060E+03  0.28557E+03  0.27511E+03
  0.26071E+03  0.24697E+03  0.22292E+03  0.19195E+03  0.16414E+03  0.11844E+03
  0.62699E+02  0.90068E+01  0.84764E+02  0.17893E+03  0.25322E+03  0.32201E+03
  0.00000E+00  0.19318E+03  0.38655E+03  0.58004E+03  0.58032E+03  0.58065E+03
  0.58104E+03  0.58147E+03  0.58191E+03  0.58233E+03  0.58258E+03  0.58266E+03
  0.58255E+03  0.58141E+03  0.57896E+03  0.57601E+03  0.57138E+03  0.56524E+03
  0.55776E+03  0.54986E+03  0.53376E+03  0.51202E+03  0.49195E+03  0.45739E+03
  0.41430E+03  0.37858E+03  0.32069E+03  0.25438E+03  0.17418E+03  0.10008E+03
  0.16820E+02  0.20289E+02  0.25123E+02  0.00000E+00  0.00000E+00  0.00000E+00
  0.00000E+00  0.00000E+00  0.00000E+00  0.00000E+00  0.00000E+00  0.00000E+00
  0.00000E+00  0.00000E+00  0.00000E+00  0.00000E+00  0.00000E+00  0.00000E+00
  0.00000E+00  0.00000E+00  0.00000E+00  0.00000E+00  0.00000E+00  0.00000E+00
  0.00000E+00  0.00000E+00  0.00000E+00  0.00000E+00  0.00000E+00  0.00000E+00
  0.00000E+00  0.00000E+00  0.00000E+00  0.00000E+00  0.00000E+00  0.00000E+00
  0.00000E+00  0.14190E-10  0.21655E-09  0.12490E-08  0.98651E-08  0.40471E-07
  0.13092E-06  0.37242E-06  0.10077E-05  0.26069E-05  0.66293E-05  0.15956E-04
  0.35902E-04  0.00000E+00  0.20940E-03  0.49426E-03  0.11096E-02  0.23936E-02
  0.50004E-02  0.10090E-01  0.21263E-01  0.44160E-01  0.87206E-01  0.17513E+00
  0.34451E+00  0.63892E+00  0.12024E+01  0.22072E+01  0.39777E+01  0.68974E+01
  0.11742E+02  0.19053E+02  0.30233E+02  0.00000E+00  0.31533E-09  0.15020E-09
  0.17190E-08  0.18625E-07  0.83036E-07  0.27657E-06  0.79245E-06  0.21426E-05
  0.55124E-05  0.13928E-04  0.33278E-04  0.74332E-04  0.00000E+00  0.42868E-03
  0.10072E-02  0.22529E-02  0.48453E-02  0.10100E-01  0.20335E-01  0.42788E-01
  0.88766E-01  0.17516E+00  0.35147E+00  0.69095E+00  0.12807E+01  0.24093E+01
  0.44212E+01  0.79654E+01  0.13809E+02  0.23505E+02  0.38135E+02  0.60505E+02
  0.00000E+00  0.15803E-08  0.25995E-08  0.10729E-08  0.18874E-07  0.11483E-06
  0.42006E-06  0.12446E-05  0.34056E-05  0.87663E-05  0.22052E-04  0.52325E-04
  0.11610E-03  0.00000E+00  0.66162E-03  0.15461E-02  0.34448E-02  0.73802E-02
  0.15331E-01  0.30813E-01  0.64697E-01  0.13398E+00  0.26397E+00  0.52915E+00
  0.10394E+01  0.19254E+01  0.36202E+01  0.66405E+01  0.11960E+02  0.20729E+02
  0.35276E+02  0.57222E+02  0.90775E+02  0.00000E+00  0.54277E-08  0.10645E-07
  0.12838E-07  0.62824E-08  0.10638E-06  0.52168E-06  0.16881E-05  0.47750E-05
  0.12414E-04  0.31224E-04  0.73704E-04  0.16234E-03  0.00000E+00  0.91293E-03
  0.21209E-02  0.46990E-02  0.10026E-01  0.20754E-01  0.41575E-01  0.87106E-01
  0.18001E+00  0.35409E+00  0.70890E+00  0.13911E+01  0.25748E+01  0.48381E+01
  0.88699E+01  0.15969E+02  0.27668E+02  0.47072E+02  0.76340E+02  0.12108E+03
  0.00000E+00  0.16444E-07  0.34187E-07  0.49777E-07  0.10570E-06  0.31112E-07
  0.45029E-06  0.19544E-05  0.60710E-05  0.16315E-04  0.41470E-04  0.97784E-04
  0.21411E-03  0.00000E+00  0.11880E-02  0.27416E-02  0.60382E-02  0.12819E-01
  0.26417E-01  0.52731E-01  0.11015E+00  0.22716E+00  0.44592E+00  0.89140E+00
  0.17471E+01  0.32304E+01  0.60652E+01  0.11113E+02  0.19996E+02  0.34632E+02
  0.58901E+02  0.95499E+02  0.15144E+03  0.00000E+00  0.46731E-07  0.99184E-07
  0.15387E-06  0.40558E-06  0.52666E-06  0.13493E-06  0.15938E-05  0.67575E-05
  0.19914E-04  0.52394E-04  0.12455E-03  0.27218E-03  0.00000E+00  0.14941E-02
  0.34227E-02  0.74884E-02  0.15803E-01  0.32411E-01  0.64408E-01  0.13410E+00
  0.27575E+00  0.54015E+00  0.10778E+01  0.21092E+01  0.38952E+01  0.73062E+01
  0.13376E+02  0.24053E+02  0.41638E+02  0.70788E+02  0.11473E+03  0.18189E+03
  0.00000E+00  0.12912E-06  0.27521E-06  0.43693E-06  0.12384E-05  0.19843E-05
  0.21386E-05  0.61075E-06  0.53237E-05  0.21474E-04  0.62198E-04  0.15249E-03
  0.33579E-03  0.00000E+00  0.18366E-02  0.41784E-02  0.90786E-02  0.19036E-01
  0.38812E-01  0.76766E-01  0.15916E+00  0.32623E+00  0.63719E+00  0.12686E+01
  0.24781E+01  0.45695E+01  0.85609E+01  0.15658E+02  0.28136E+02  0.48674E+02
  0.82709E+02  0.13400E+03  0.21236E+03  0.00000E+00  0.35726E-06  0.75915E-06
  0.12124E-05  0.35350E-05  0.60834E-05  0.80721E-05  0.80542E-05  0.25316E-05
  0.15796E-04  0.64987E-04  0.17522E-03  0.39857E-03  0.00000E+00  0.22151E-02
  0.50146E-02  0.10831E-01  0.22562E-01  0.45719E-01  0.89912E-01  0.18561E+00
  0.37900E+00  0.73780E+00  0.14651E+01  0.28558E+01  0.52566E+01  0.98341E+01
  0.17966E+02  0.32253E+02  0.55754E+02  0.94683E+02  0.15332E+03  0.24287E+03
  0.00000E+00  0.95015E-06  0.20064E-05  0.31945E-05  0.93752E-05  0.16497E-04
  0.23313E-04  0.27820E-04  0.25559E-04  0.73942E-05  0.49380E-04  0.18071E-03
  0.44891E-03  0.00000E+00  0.26269E-02  0.59408E-02  0.12774E-01  0.26445E-01
  0.53247E-01  0.10408E+00  0.21384E+00  0.43475E+00  0.84318E+00  0.16692E+01
  0.32456E+01  0.59609E+01  0.11133E+02  0.20310E+02  0.36421E+02  0.62901E+02
  0.10674E+03  0.17273E+03  0.27347E+03  0.00000E+00  0.25205E-05  0.52835E-05
  0.83629E-05  0.24505E-04  0.43363E-04  0.62638E-04  0.79455E-04  0.88092E-04
  0.77236E-04  0.18266E-04  0.13099E-03  0.44529E-03  0.00000E+00  0.30271E-02
  0.69134E-02  0.14875E-01  0.30680E-01  0.61431E-01  0.11934E+00  0.24399E+00
  0.49386E+00  0.95366E+00  0.18816E+01  0.36479E+01  0.66827E+01  0.12456E+02
  0.22687E+02  0.40630E+02  0.70090E+02  0.11883E+03  0.19214E+03  0.30399E+03
  0.00000E+00  0.66745E-05  0.13887E-04  0.21824E-04  0.63616E-04  0.11229E-03
  0.16309E-03  0.21126E-03  0.24963E-03  0.26427E-03  0.21893E-03  0.65410E-04
  0.28750E-03  0.00000E+00  0.32976E-02  0.77960E-02  0.16994E-01  0.35129E-01
  0.70134E-01  0.13558E+00  0.27611E+00  0.55648E+00  0.10697E+01  0.21030E+01
  0.40643E+01  0.74238E+01  0.13807E+02  0.25100E+02  0.44880E+02  0.77319E+02
  0.13094E+03  0.21151E+03  0.33437E+03  0.00000E+00  0.17730E-04  0.36654E-04
  0.57195E-04  0.16564E-03  0.29068E-03  0.42128E-03  0.54819E-03  0.66279E-03
  0.74811E-03  0.75800E-03  0.64037E-03  0.27965E-03  0.00000E+00  0.31141E-02
  0.82010E-02  0.18685E-01  0.39280E-01  0.78778E-01  0.15206E+00  0.30934E+00
  0.62169E+00  0.11899E+01  0.23319E+01  0.44927E+01  0.81801E+01  0.15177E+02
  0.27534E+02  0.49148E+02  0.84543E+02  0.14299E+03  0.23070E+03  0.36430E+03
  0.00000E+00  0.45640E-04  0.93802E-04  0.14541E-03  0.41825E-03  0.72884E-03
  0.10494E-02  0.13611E-02  0.16522E-02  0.19029E-02  0.20539E-02  0.20541E-02
  0.17477E-02  0.00000E+00  0.18929E-02  0.74586E-02  0.19221E-01  0.42352E-01
  0.86522E-01  0.16790E+00  0.34282E+00  0.68885E+00  0.13141E+01  0.25684E+01
  0.49340E+01  0.89528E+01  0.16569E+02  0.29991E+02  0.53432E+02  0.91747E+02
  0.15495E+03  0.24961E+03  0.39364E+03  0.00000E+00  0.10679E-03  0.21839E-03
  0.33648E-03  0.96135E-03  0.16623E-02  0.23748E-02  0.30559E-02  0.36905E-02
  0.42527E-02  0.46638E-02  0.48803E-02  0.46785E-02  0.00000E+00  0.84825E-03
  0.51700E-02  0.18400E-01  0.44501E-01  0.94076E-01  0.18461E+00  0.37965E+00
  0.76335E+00  0.14507E+01  0.28266E+01  0.54104E+01  0.97753E+01  0.18033E+02
  0.32546E+02  0.57841E+02  0.99091E+02  0.16703E+03  0.26857E+03  0.42282E+03
  0.00000E+00  0.38529E-03  0.78455E-03  0.12026E-02  0.25307E-02  0.39065E-02
  0.52260E-02  0.64416E-02  0.75390E-02  0.85002E-02  0.92858E-02  0.98132E-02
  0.99790E-02  0.88499E-02  0.00000E+00  0.71994E-03  0.15003E-01  0.43185E-01
  0.96231E-01  0.19155E+00  0.39735E+00  0.79904E+00  0.15046E+01  0.29181E+01
  0.55568E+01  0.99824E+01  0.18332E+02  0.32956E+02  0.58371E+02  0.99695E+02
  0.16762E+03  0.26888E+03  0.42242E+03  0.00000E+00  0.10582E-02  0.21463E-02
  0.32767E-02  0.59587E-02  0.86088E-02  0.11044E-01  0.13217E-01  0.15106E-01
  0.16716E-01  0.18076E-01  0.19149E-01  0.19808E-01  0.18936E-01  0.15150E-01
  0.00000E+00  0.70365E-02  0.37575E-01  0.94571E-01  0.19566E+00  0.41430E+00
  0.83747E+00  0.15677E+01  0.30281E+01  0.57353E+01  0.10236E+02  0.18701E+02
  0.33461E+02  0.59024E+02  0.10044E+03  0.16835E+03  0.26924E+03  0.42188E+03
  0.00000E+00  0.27689E-02  0.56017E-02  0.85203E-02  0.13562E-01  0.18251E-01
  0.22422E-01  0.25933E-01  0.28921E-01  0.31471E-01  0.33597E-01  0.35242E-01
  0.36521E-01  0.35814E-01  0.31724E-01  0.23450E-01  0.47162E-02  0.28144E-01
  0.91029E-01  0.20096E+00  0.43825E+00  0.89021E+00  0.16585E+01  0.31862E+01
  0.59919E+01  0.10605E+02  0.19244E+02  0.34219E+02  0.60040E+02  0.10168E+03
  0.16974E+03  0.27044E+03  0.42239E+03  0.00000E+00  0.68161E-02  0.13750E-01
  0.20858E-01  0.29820E-01  0.37786E-01  0.44475E-01  0.49977E-01  0.54495E-01
  0.58378E-01  0.61420E-01  0.63970E-01  0.65889E-01  0.65437E-01  0.60477E-01
  0.50956E-01  0.29912E-01  0.94333E-02  0.81372E-01  0.20194E+00  0.46448E+00
  0.95653E+00  0.17761E+01  0.33940E+01  0.63316E+01  0.11097E+02  0.19971E+02
  0.35243E+02  0.61427E+02  0.10340E+03  0.17175E+03  0.27238E+03  0.42370E+03
  0.00000E+00  0.15699E-01  0.31615E-01  0.47847E-01  0.63264E-01  0.76382E-01
  0.87145E-01  0.95618E-01  0.10256E+00  0.10831E+00  0.11288E+00  0.11653E+00
  0.11943E+00  0.11905E+00  0.11283E+00  0.10128E+00  0.75931E-01  0.28656E-01
  0.53664E-01  0.65086E+00  0.48478E+00  0.10306E+01  0.19168E+01  0.36519E+01
  0.67602E+01  0.11721E+02  0.20899E+02  0.36554E+02  0.63211E+02  0.10564E+03
  0.17439E+03  0.27498E+03  0.42563E+03  0.00000E+00  0.34882E-01  0.70164E-01
  0.10596E+00  0.13279E+00  0.15448E+00  0.17175E+00  0.18516E+00  0.19607E+00
  0.20444E+00  0.21131E+00  0.21733E+00  0.22175E+00  0.22154E+00  0.21424E+00
  0.19981E+00  0.16891E+00  0.11215E+00  0.15223E-01  0.14079E+00  0.48705E+00
  0.10912E+01  0.20573E+01  0.39386E+01  0.72581E+01  0.12455E+02  0.22001E+02
  0.38117E+02  0.65334E+02  0.10827E+03  0.17744E+03  0.27786E+03  0.42746E+03
  0.00000E+00  0.77378E-01  0.15546E+00  0.23449E+00  0.28118E+00  0.31765E+00
  0.34555E+00  0.36656E+00  0.38360E+00  0.39618E+00  0.40734E+00  0.41615E+00
  0.42384E+00  0.42410E+00  0.41485E+00  0.39835E+00  0.36018E+00  0.29251E+00
  0.17837E+00  0.00000E+00  0.38942E+00  0.11088E+01  0.21483E+01  0.42073E+01
  0.77817E+01  0.13252E+02  0.23229E+02  0.39872E+02  0.67711E+02  0.11117E+03
  0.18067E+03  0.28058E+03  0.42844E+03  0.00000E+00  0.16311E+00  0.32733E+00
  0.49319E+00  0.56796E+00  0.62276E+00  0.66229E+00  0.69028E+00  0.71139E+00
  0.72929E+00  0.74272E+00  0.75311E+00  0.76282E+00  0.76222E+00  0.74805E+00
  0.72441E+00  0.67173E+00  0.58127E+00  0.43592E+00  0.21780E+00  0.25623E+00
  0.10818E+01  0.22986E+01  0.46281E+01  0.85870E+01  0.14482E+02  0.25126E+02
  0.42610E+02  0.71501E+02  0.11601E+03  0.18655E+03  0.28679E+03  0.43398E+03
  0.00000E+00  0.45112E+00  0.90495E+00  0.13621E+01  0.13678E+01  0.13747E+01
  0.13831E+01  0.13930E+01  0.14041E+01  0.14163E+01  0.14278E+01  0.14389E+01
  0.14490E+01  0.14460E+01  0.14235E+01  0.13894E+01  0.13187E+01  0.12008E+01
  0.10173E+01  0.75290E+00  0.17305E+00  0.81428E+00  0.22100E+01  0.48650E+01
  0.92800E+01  0.15650E+02  0.27046E+02  0.45450E+02  0.75447E+02  0.12094E+03
  0.19228E+03  0.29213E+03  0.43729E+03  0.00000E+00  0.84047E+00  0.16850E+01
  0.25343E+01  0.25426E+01  0.25528E+01  0.25649E+01  0.25792E+01  0.25951E+01
  0.26121E+01  0.26278E+01  0.26424E+01  0.26550E+01  0.26473E+01  0.26104E+01
  0.25578E+01  0.24542E+01  0.22884E+01  0.20409E+01  0.16999E+01  0.95612E+00
  0.27469E+00  0.19389E+01  0.50674E+01  0.10136E+02  0.17186E+02  0.29652E+02
  0.49373E+02  0.80986E+02  0.12802E+03  0.20084E+03  0.30092E+03  0.44468E+03
  0.00000E+00  0.15980E+01  0.32022E+01  0.48134E+01  0.48259E+01  0.48410E+01
  0.48591E+01  0.48802E+01  0.49036E+01  0.49284E+01  0.49506E+01  0.49707E+01
  0.49874E+01  0.49728E+01  0.49143E+01  0.48345E+01  0.46830E+01  0.44487E+01
  0.41115E+01  0.36676E+01  0.26985E+01  0.11383E+01  0.87209E+00  0.46167E+01
  0.10519E+02  0.18389E+02  0.32153E+02  0.53430E+02  0.86898E+02  0.13556E+03
  0.20977E+03  0.30943E+03  0.45039E+03  0.00000E+00  0.30605E+01  0.61306E+01
  0.92111E+01  0.92300E+01  0.92528E+01  0.92799E+01  0.93115E+01  0.93461E+01
  0.93825E+01  0.94143E+01  0.94422E+01  0.94644E+01  0.94380E+01  0.93450E+01
  0.92225E+01  0.89973E+01  0.86595E+01  0.81900E+01  0.75993E+01  0.63071E+01
  0.42835E+01  0.18069E+01  0.27687E+01  0.97714E+01  0.18663E+02  0.34055E+02
  0.57226E+02  0.92896E+02  0.14335E+03  0.21890E+03  0.31738E+03  0.45398E+03
  0.00000E+00  0.58565E+01  0.11728E+02  0.17614E+02  0.17643E+02  0.17677E+02
  0.17718E+02  0.17765E+02  0.17816E+02  0.17869E+02  0.17914E+02  0.17952E+02
  0.17980E+02  0.17932E+02  0.17781E+02  0.17588E+02  0.17244E+02  0.16743E+02
  0.16069E+02  0.15256E+02  0.13482E+02  0.10782E+02  0.76496E+01  0.19122E+01
  0.65925E+01  0.16804E+02  0.34302E+02  0.59851E+02  0.98210E+02  0.15066E+03
  0.22755E+03  0.32393E+03  0.45426E+03  0.00000E+00  0.11146E+02  0.22315E+02
  0.33506E+02  0.33548E+02  0.33599E+02  0.33660E+02  0.33729E+02  0.33804E+02
  0.33880E+02  0.33942E+02  0.33990E+02  0.34021E+02  0.33931E+02  0.33680E+02
  0.33366E+02  0.32826E+02  0.32058E+02  0.31056E+02  0.29892E+02  0.27377E+02
  0.23656E+02  0.19561E+02  0.12143E+02  0.15178E+01  0.10465E+02  0.30779E+02
  0.59403E+02  0.10114E+03  0.15590E+03  0.23408E+03  0.32713E+03  0.44877E+03
  0.00000E+00  0.21467E+02  0.42971E+02  0.64508E+02  0.64572E+02  0.64649E+02
  0.64740E+02  0.64845E+02  0.64956E+02  0.65068E+02  0.65155E+02  0.65218E+02
  0.65253E+02  0.65095E+02  0.64686E+02  0.64182E+02  0.63335E+02  0.62158E+02
  0.60657E+02  0.58974E+02  0.55358E+02  0.50143E+02  0.44702E+02  0.34932E+02
  0.21418E+02  0.72278E+01  0.16612E+02  0.48857E+02  0.94297E+02  0.15082E+03
  0.22891E+03  0.31502E+03  0.42192E+03  0.00000E+00  0.40735E+02  0.81527E+02
  0.12237E+03  0.12246E+03  0.12258E+03  0.12271E+03  0.12286E+03  0.12302E+03
  0.12318E+03  0.12329E+03  0.12337E+03  0.12338E+03  0.12309E+03  0.12240E+03
  0.12156E+03  0.12019E+03  0.11832E+03  0.11598E+03  0.11342E+03  0.10802E+03
  0.10043E+03  0.92863E+02  0.79475E+02  0.61612E+02  0.44198E+02  0.15298E+02
  0.21975E+02  0.72387E+02  0.13097E+03  0.20851E+03  0.28480E+03  0.37185E+03
  0.00000E+00  0.78404E+02  0.15690E+03  0.23546E+03  0.23561E+03  0.23578E+03
  0.23598E+03  0.23621E+03  0.23645E+03  0.23668E+03  0.23683E+03  0.23691E+03
  0.23690E+03  0.23640E+03  0.23526E+03  0.23389E+03  0.23169E+03  0.22873E+03
  0.22510E+03  0.22120E+03  0.21310E+03  0.20194E+03  0.19130E+03  0.17268E+03
  0.14868E+03  0.12714E+03  0.91745E+02  0.48566E+02  0.69766E+01  0.65658E+02
  0.13860E+03  0.19614E+03  0.24943E+03  0.00000E+00  0.14964E+03  0.29942E+03
  0.44929E+03  0.44951E+03  0.44977E+03  0.45007E+03  0.45040E+03  0.45075E+03
  0.45107E+03  0.45126E+03  0.45133E+03  0.45124E+03  0.45036E+03  0.44846E+03
  0.44618E+03  0.44259E+03  0.43783E+03  0.43204E+03  0.42592E+03  0.41345E+03
  0.39661E+03  0.38106E+03  0.35429E+03  0.32092E+03  0.29325E+03  0.24840E+03
  0.19704E+03  0.13492E+03  0.77524E+02  0.13028E+02  0.15716E+02  0.19460E+02
  0.00000E+00  0.00000E+00  0.00000E+00  0.00000E+00  0.00000E+00  0.00000E+00
  0.00000E+00  0.00000E+00  0.00000E+00  0.00000E+00  0.00000E+00  0.00000E+00
  0.00000E+00  0.00000E+00  0.00000E+00  0.00000E+00  0.00000E+00  0.00000E+00
  0.00000E+00  0.00000E+00  0.00000E+00  0.00000E+00  0.00000E+00  0.00000E+00
  0.00000E+00  0.00000E+00  0.00000E+00  0.00000E+00  0.00000E+00  0.00000E+00
  0.00000E+00  0.00000E+00  0.00000E+00  0.00000E+00  0.51758E-11  0.78966E-10
  0.45545E-09  0.60303E-08  0.27984E-07  0.96058E-07  0.28237E-06  0.78060E-06
  0.20417E-05  0.52425E-05  0.12624E-04  0.27858E-04  0.00000E+00  0.17205E-03
  0.40273E-03  0.90246E-03  0.19468E-02  0.40747E-02  0.82235E-02  0.17327E-01
  0.36057E-01  0.71203E-01  0.14299E+00  0.28129E+00  0.52167E+00  0.98177E+00
  0.18022E+01  0.32477E+01  0.56317E+01  0.95875E+01  0.15557E+02  0.24685E+02
  0.00000E+00  0.11499E-09  0.54778E-10  0.62688E-09  0.11381E-07  0.57427E-07
  0.20289E-06  0.60098E-06  0.16592E-05  0.43188E-05  0.11009E-04  0.26325E-04
  0.57696E-04  0.00000E+00  0.35221E-03  0.82117E-03  0.18328E-02  0.39420E-02
  0.82290E-02  0.16580E-01  0.34862E-01  0.72477E-01  0.14302E+00  0.28697E+00
  0.56415E+00  0.10457E+01  0.19672E+01  0.36099E+01  0.65037E+01  0.11275E+02
  0.19192E+02  0.31137E+02  0.49402E+02  0.00000E+00  0.57628E-09  0.94794E-09
  0.39131E-09  0.11532E-07  0.79419E-07  0.30823E-06  0.94432E-06  0.26380E-05
  0.68661E-05  0.17435E-04  0.41403E-04  0.90094E-04  0.00000E+00  0.54360E-03
  0.12599E-02  0.28005E-02  0.60030E-02  0.12494E-01  0.25112E-01  0.52726E-01
  0.10939E+00  0.21553E+00  0.43205E+00  0.84868E+00  0.15721E+01  0.29559E+01
  0.54219E+01  0.97652E+01  0.16925E+02  0.28803E+02  0.46721E+02  0.74118E+02
  0.00000E+00  0.19795E-08  0.38813E-08  0.46797E-08  0.38382E-08  0.73564E-07
  0.38272E-06  0.12801E-05  0.36976E-05  0.97213E-05  0.24690E-04  0.58328E-04
  0.12595E-03  0.00000E+00  0.74979E-03  0.17279E-02  0.38215E-02  0.81540E-02
  0.16910E-01  0.33873E-01  0.70971E-01  0.14698E+00  0.28911E+00  0.57881E+00
  0.11358E+01  0.21023E+01  0.39503E+01  0.72422E+01  0.13038E+02  0.22591E+02
  0.38434E+02  0.62332E+02  0.98864E+02  0.00000E+00  0.59955E-08  0.12469E-07
  0.18159E-07  0.64586E-07  0.21529E-07  0.33047E-06  0.14822E-05  0.47021E-05
  0.12780E-04  0.32794E-04  0.77365E-04  0.16611E-03  0.00000E+00  0.97606E-03
  0.22339E-02  0.49103E-02  0.10425E-01  0.21526E-01  0.42969E-01  0.89760E-01
  0.18547E+00  0.36409E+00  0.72782E+00  0.14265E+01  0.26377E+01  0.49522E+01
  0.90734E+01  0.16327E+02  0.28277E+02  0.48093E+02  0.77974E+02  0.12365E+03
  0.00000E+00  0.17041E-07  0.36156E-07  0.56127E-07  0.24771E-06  0.36412E-06
  0.98958E-07  0.12083E-05  0.52328E-05  0.15597E-04  0.41424E-04  0.98527E-04
  0.21121E-03  0.00000E+00  0.12276E-02  0.27891E-02  0.60908E-02  0.12854E-01
  0.26413E-01  0.52489E-01  0.10926E+00  0.22515E+00  0.44103E+00  0.88000E+00
  0.17221E+01  0.31804E+01  0.59655E+01  0.10921E+02  0.19640E+02  0.33997E+02
  0.57798E+02  0.93679E+02  0.14851E+03  0.00000E+00  0.47100E-07  0.10037E-06
  0.15936E-06  0.75695E-06  0.13725E-05  0.15690E-05  0.46324E-06  0.41242E-05
  0.16818E-04  0.49180E-04  0.12065E-03  0.26055E-03  0.00000E+00  0.15090E-02
  0.34052E-02  0.73836E-02  0.15483E-01  0.31632E-01  0.62552E-01  0.12971E+00
  0.26636E+00  0.52026E+00  0.10358E+01  0.20233E+01  0.37310E+01  0.69899E+01
  0.12785E+02  0.22973E+02  0.39742E+02  0.67531E+02  0.10941E+03  0.17339E+03
  0.00000E+00  0.13027E-06  0.27689E-06  0.44217E-06  0.21599E-05  0.42074E-05
  0.59216E-05  0.61075E-05  0.19614E-05  0.12370E-04  0.51399E-04  0.13861E-03
  0.30924E-03  0.00000E+00  0.18200E-02  0.40861E-02  0.88084E-02  0.18349E-01
  0.37256E-01  0.73270E-01  0.15126E+00  0.30945E+00  0.60241E+00  0.11962E+01
  0.23318E+01  0.42920E+01  0.80295E+01  0.14669E+02  0.26335E+02  0.45523E+02
  0.77308E+02  0.12518E+03  0.19830E+03  0.00000E+00  0.34653E-06  0.73186E-06
  0.11650E-05  0.57297E-05  0.11413E-04  0.17101E-04  0.21097E-04  0.19799E-04
  0.57914E-05  0.39056E-04  0.14299E-03  0.34828E-03  0.00000E+00  0.21580E-02
  0.48411E-02  0.10388E-01  0.21510E-01  0.43393E-01  0.84821E-01  0.17425E+00
  0.35498E+00  0.68845E+00  0.13629E+01  0.26500E+01  0.48671E+01  0.90900E+01
  0.16583E+02  0.29738E+02  0.51358E+02  0.87151E+02  0.14103E+03  0.22329E+03
  0.00000E+00  0.91933E-06  0.19267E-05  0.30497E-05  0.14979E-04  0.29984E-04
  0.45957E-04  0.60244E-04  0.68242E-04  0.60491E-04  0.14445E-04  0.10364E-03
  0.34552E-03  0.00000E+00  0.24871E-02  0.56331E-02  0.12098E-01  0.24953E-01
  0.50059E-01  0.97258E-01  0.19882E+00  0.40324E+00  0.77866E+00  0.15363E+01
  0.29785E+01  0.54564E+01  0.10170E+02  0.18524E+02  0.33174E+02  0.57228E+02
  0.97024E+02  0.15688E+03  0.24821E+03  0.00000E+00  0.24337E-05  0.50644E-05
  0.79582E-05  0.38865E-04  0.77666E-04  0.11965E-03  0.16022E-03  0.19335E-03
  0.20696E-03  0.17314E-03  0.51747E-04  0.22307E-03  0.00000E+00  0.27093E-02
  0.63526E-02  0.13821E-01  0.28567E-01  0.57153E-01  0.11048E+00  0.22500E+00
  0.45437E+00  0.87337E+00  0.17171E+01  0.33185E+01  0.60615E+01  0.11273E+02
  0.20494E+02  0.36644E+02  0.63131E+02  0.10691E+03  0.17270E+03  0.27301E+03
  0.00000E+00  0.64630E-05  0.13368E-04  0.20856E-04  0.10121E-03  0.20109E-03
  0.30905E-03  0.41577E-03  0.51341E-03  0.58594E-03  0.59947E-03  0.50663E-03
  0.21697E-03  0.00000E+00  0.25583E-02  0.66829E-02  0.15196E-01  0.31942E-01
  0.64192E-01  0.12391E+00  0.25207E+00  0.50761E+00  0.97158E+00  0.19039E+01
  0.36683E+01  0.66790E+01  0.12392E+02  0.22481E+02  0.40130E+02  0.69029E+02
  0.11675E+03  0.18837E+03  0.29745E+03  0.00000E+00  0.16649E-04  0.34218E-04
  0.53042E-04  0.25561E-03  0.50402E-03  0.76998E-03  0.10321E-02  0.12797E-02
  0.14905E-02  0.16244E-02  0.16250E-02  0.13560E-02  0.00000E+00  0.15552E-02
  0.60775E-02  0.15632E-01  0.34443E-01  0.70506E-01  0.13682E+00  0.27937E+00
  0.56244E+00  0.10729E+01  0.20971E+01  0.40286E+01  0.73100E+01  0.13528E+02
  0.24488E+02  0.43627E+02  0.74911E+02  0.12651E+03  0.20381E+03  0.32140E+03
  0.00000E+00  0.38947E-04  0.79636E-04  0.12274E-03  0.58728E-03  0.11498E-02
  0.17423E-02  0.23174E-02  0.28586E-02  0.33310E-02  0.36881E-02  0.38611E-02
  0.36301E-02  0.00000E+00  0.69686E-03  0.42129E-02  0.14963E-01  0.36190E-01
  0.76657E-01  0.15044E+00  0.30935E+00  0.62328E+00  0.11845E+01  0.23079E+01
  0.44176E+01  0.79815E+01  0.14724E+02  0.26574E+02  0.47227E+02  0.80907E+02
  0.13638E+03  0.21928E+03  0.34523E+03  0.00000E+00  0.19644E-03  0.39999E-03
  0.61309E-03  0.16500E-02  0.27853E-02  0.39108E-02  0.49599E-02  0.59025E-02
  0.67369E-02  0.74110E-02  0.78825E-02  0.80164E-02  0.70215E-02  0.00000E+00
  0.58783E-03  0.12201E-01  0.35192E-01  0.78413E-01  0.15610E+00  0.32378E+00
  0.65241E+00  0.12285E+01  0.23827E+01  0.45371E+01  0.81506E+01  0.14968E+02
  0.26908E+02  0.47659E+02  0.81401E+02  0.13686E+03  0.21954E+03  0.34490E+03
  0.00000E+00  0.63827E-03  0.12946E-02  0.19767E-02  0.41347E-02  0.63464E-02
  0.84403E-02  0.10312E-01  0.11968E-01  0.13394E-01  0.14550E-01  0.15479E-01
  0.16045E-01  0.15339E-01  0.12222E-01  0.00000E+00  0.57341E-02  0.30621E-01
  0.77069E-01  0.15976E+00  0.33827E+00  0.68379E+00  0.12800E+01  0.24725E+01
  0.46828E+01  0.83576E+01  0.15270E+02  0.27320E+02  0.48193E+02  0.82007E+02
  0.13746E+03  0.21983E+03  0.34446E+03  0.00000E+00  0.18456E-02  0.37329E-02
  0.56789E-02  0.98209E-02  0.13791E-01  0.17388E-01  0.20487E-01  0.23074E-01
  0.25329E-01  0.27158E-01  0.28603E-01  0.29641E-01  0.29128E-01  0.25799E-01
  0.19070E-01  0.41390E-02  0.22935E-01  0.74182E-01  0.16377E+00  0.35711E+00
  0.72685E+00  0.13542E+01  0.26015E+01  0.48923E+01  0.86590E+01  0.15713E+02
  0.27940E+02  0.49022E+02  0.83018E+02  0.13859E+03  0.22081E+03  0.34488E+03
  0.00000E+00  0.47943E-02  0.96802E-02  0.14680E-01  0.22181E-01  0.29031E-01
  0.34865E-01  0.39766E-01  0.43762E-01  0.47086E-01  0.49849E-01  0.52027E-01
  0.53688E-01  0.53218E-01  0.49284E-01  0.41521E-01  0.24376E-01  0.77022E-02
  0.67371E-01  0.16455E+00  0.37849E+00  0.78101E+00  0.14502E+01  0.27712E+01
  0.51697E+01  0.90604E+01  0.16306E+02  0.28776E+02  0.50155E+02  0.84429E+02
  0.14023E+03  0.22240E+03  0.34595E+03  0.00000E+00  0.11385E-01  0.22934E-01
  0.34705E-01  0.47829E-01  0.59392E-01  0.68847E-01  0.76449E-01  0.82540E-01
  0.87548E-01  0.91610E-01  0.94779E-01  0.97319E-01  0.97007E-01  0.92129E-01
  0.82692E-01  0.61879E-01  0.23398E-01  0.43733E-01  0.18126E+00  0.39506E+00
  0.84148E+00  0.15650E+01  0.29818E+01  0.55196E+01  0.95699E+01  0.17064E+02
  0.29846E+02  0.51612E+02  0.86255E+02  0.14239E+03  0.22452E+03  0.34752E+03
  0.00000E+00  0.25946E-01  0.52204E-01  0.78848E-01  0.10204E+00  0.12111E+00
  0.13667E+00  0.14870E+00  0.15815E+00  0.16593E+00  0.17184E+00  0.17677E+00
  0.18071E+00  0.18054E+00  0.17459E+00  0.16314E+00  0.13764E+00  0.91570E-01
  0.12430E-01  0.11472E+00  0.39845E+00  0.89277E+00  0.16798E+01  0.32158E+01
  0.59262E+01  0.10169E+02  0.17964E+02  0.31123E+02  0.53345E+02  0.88405E+02
  0.14488E+03  0.22687E+03  0.34902E+03  0.00000E+00  0.58971E-01  0.11848E+00
  0.17871E+00  0.21969E+00  0.25211E+00  0.27688E+00  0.29626E+00  0.31070E+00
  0.32221E+00  0.33126E+00  0.33913E+00  0.34540E+00  0.34628E+00  0.33872E+00
  0.32525E+00  0.29409E+00  0.23838E+00  0.14564E+00  0.00000E+00  0.31796E+00
  0.92574E+00  0.17541E+01  0.34352E+01  0.63537E+01  0.10820E+02  0.18967E+02
  0.32555E+02  0.55286E+02  0.90769E+02  0.14752E+03  0.22910E+03  0.34982E+03
  0.00000E+00  0.12732E+00  0.25555E+00  0.38495E+00  0.45266E+00  0.50214E+00
  0.53633E+00  0.56134E+00  0.57970E+00  0.59425E+00  0.60642E+00  0.61491E+00
  0.62284E+00  0.62235E+00  0.61078E+00  0.59148E+00  0.54846E+00  0.47460E+00
  0.35592E+00  0.17784E+00  0.20921E+00  0.35384E+01  0.18768E+01  0.37788E+01
  0.70113E+01  0.11825E+02  0.20515E+02  0.34791E+02  0.58380E+02  0.94722E+02
  0.15232E+03  0.23417E+03  0.35435E+03  0.00000E+00  0.36834E+00  0.73889E+00
  0.11121E+01  0.11168E+01  0.11225E+01  0.11293E+01  0.11374E+01  0.11465E+01
  0.11564E+01  0.11658E+01  0.11749E+01  0.11831E+01  0.11807E+01  0.11623E+01
  0.11344E+01  0.10767E+01  0.98042E+00  0.83065E+00  0.61474E+00  0.14129E+00
  0.66486E+00  0.18045E+01  0.39722E+01  0.75771E+01  0.12778E+02  0.22083E+02
  0.37110E+02  0.61602E+02  0.98745E+02  0.15699E+03  0.23852E+03  0.35705E+03
  0.00000E+00  0.68624E+00  0.13758E+01  0.20692E+01  0.20760E+01  0.20843E+01
  0.20942E+01  0.21059E+01  0.21189E+01  0.21328E+01  0.21456E+01  0.21575E+01
  0.21678E+01  0.21615E+01  0.21314E+01  0.20884E+01  0.20039E+01  0.18685E+01
  0.16664E+01  0.13880E+01  0.78067E+00  0.22428E+00  0.15831E+01  0.41375E+01
  0.82761E+01  0.14032E+02  0.24211E+02  0.40313E+02  0.66125E+02  0.10453E+03
  0.16398E+03  0.24570E+03  0.36308E+03  0.00000E+00  0.13048E+01  0.26145E+01
  0.39301E+01  0.39403E+01  0.39527E+01  0.39674E+01  0.39847E+01  0.40038E+01
  0.40240E+01  0.40421E+01  0.40585E+01  0.40722E+01  0.40602E+01  0.40125E+01
  0.39473E+01  0.38237E+01  0.36323E+01  0.33570E+01  0.29946E+01  0.22033E+01
  0.92943E+00  0.71206E+00  0.37695E+01  0.85889E+01  0.15014E+02  0.26253E+02
  0.43626E+02  0.70952E+02  0.11069E+03  0.17128E+03  0.25265E+03  0.36774E+03
  0.00000E+00  0.24989E+01  0.50056E+01  0.75209E+01  0.75362E+01  0.75549E+01
  0.75770E+01  0.76028E+01  0.76311E+01  0.76608E+01  0.76867E+01  0.77095E+01
  0.77277E+01  0.77061E+01  0.76302E+01  0.75302E+01  0.73463E+01  0.70704E+01
  0.66871E+01  0.62048E+01  0.51498E+01  0.34975E+01  0.14754E+01  0.22606E+01
  0.79783E+01  0.15238E+02  0.27806E+02  0.46725E+02  0.75849E+02  0.11704E+03
  0.17873E+03  0.25914E+03  0.37067E+03  0.00000E+00  0.47818E+01  0.95756E+01
  0.14382E+02  0.14405E+02  0.14433E+02  0.14466E+02  0.14505E+02  0.14547E+02
  0.14590E+02  0.14627E+02  0.14658E+02  0.14681E+02  0.14641E+02  0.14518E+02
  0.14360E+02  0.14079E+02  0.13670E+02  0.13120E+02  0.12457E+02  0.11008E+02
  0.88035E+01  0.62459E+01  0.15613E+01  0.53828E+01  0.13720E+02  0.28008E+02
  0.48868E+02  0.80188E+02  0.12302E+03  0.18579E+03  0.26448E+03  0.37090E+03
  0.00000E+00  0.91005E+01  0.18220E+02  0.27357E+02  0.27392E+02  0.27434E+02
  0.27483E+02  0.27540E+02  0.27601E+02  0.27663E+02  0.27713E+02  0.27753E+02
  0.27778E+02  0.27705E+02  0.27500E+02  0.27243E+02  0.26802E+02  0.26176E+02
  0.25357E+02  0.24407E+02  0.22354E+02  0.19315E+02  0.15972E+02  0.99150E+01
  0.12393E+01  0.85449E+01  0.25131E+02  0.48503E+02  0.82583E+02  0.12729E+03
  0.19112E+03  0.26710E+03  0.36642E+03  0.00000E+00  0.17528E+02  0.35086E+02
  0.52670E+02  0.52723E+02  0.52786E+02  0.52860E+02  0.52945E+02  0.53036E+02
  0.53128E+02  0.53198E+02  0.53251E+02  0.53278E+02  0.53149E+02  0.52816E+02
  0.52404E+02  0.51713E+02  0.50752E+02  0.49526E+02  0.48152E+02  0.45200E+02
  0.40942E+02  0.36499E+02  0.28521E+02  0.17487E+02  0.59015E+01  0.13564E+02
  0.39891E+02  0.76993E+02  0.12314E+03  0.18690E+03  0.25722E+03  0.34450E+03
  0.00000E+00  0.33260E+02  0.66567E+02  0.99911E+02  0.99989E+02  0.10008E+03
  0.10019E+03  0.10032E+03  0.10045E+03  0.10058E+03  0.10067E+03  0.10073E+03
  0.10074E+03  0.10051E+03  0.99943E+02  0.99256E+02  0.98135E+02  0.96606E+02
  0.94695E+02  0.92603E+02  0.88196E+02  0.81999E+02  0.75822E+02  0.64891E+02
  0.50306E+02  0.36087E+02  0.12491E+02  0.17943E+02  0.59103E+02  0.10694E+03
  0.17025E+03  0.23254E+03  0.30361E+03  0.00000E+00  0.64017E+02  0.12811E+03
  0.19225E+03  0.19237E+03  0.19251E+03  0.19268E+03  0.19286E+03  0.19306E+03
  0.19324E+03  0.19337E+03  0.19344E+03  0.19343E+03  0.19302E+03  0.19209E+03
  0.19097E+03  0.18917E+03  0.18676E+03  0.18379E+03  0.18061E+03  0.17399E+03
  0.16489E+03  0.15619E+03  0.14099E+03  0.12140E+03  0.10381E+03  0.74909E+02
  0.39654E+02  0.56964E+01  0.53610E+02  0.11317E+03  0.16015E+03  0.20366E+03
  0.00000E+00  0.12218E+03  0.24448E+03  0.36685E+03  0.36702E+03  0.36724E+03
  0.36748E+03  0.36775E+03  0.36803E+03  0.36830E+03  0.36845E+03  0.36851E+03
  0.36844E+03  0.36771E+03  0.36616E+03  0.36430E+03  0.36137E+03  0.35749E+03
  0.35276E+03  0.34776E+03  0.33758E+03  0.32383E+03  0.31114E+03  0.28928E+03
  0.26203E+03  0.23943E+03  0.20282E+03  0.16088E+03  0.11016E+03  0.63298E+02
  0.10638E+02  0.12832E+02  0.15889E+02
