  0.00000E+00  0.00000E+00  0.00000E+00  0.00000E+00  0.00000E+00  0.00000E+00
  0.00000E+00  0.00000E+00  0.00000E+00  0.00000E+00  0.00000E+00  0.00000E+00
  0.00000E+00  0.00000E+00  0.00000E+00  0.00000E+00  0.00000E+00  0.00000E+00
  0.00000E+00  0.00000E+00  0.00000E+00  0.00000E+00  0.00000E+00  0.00000E+00
  0.00000E+00  0.00000E+00  0.00000E+00  0.00000E+00  0.00000E+00  0.00000E+00
  0.00000E+00  0.00000E+00  0.00000E+00  0.00000E+00  0.00000E+00  0.00000E+00
  0.00000E+00  0.00000E+00  0.00000E+00  0.00000E+00  0.00000E+00  0.00000E+00
  0.00000E+00  0.90839E-05  0.18159E-04  0.40994E-04  0.10331E-03  0.26316E-03
  0.61124E-03  0.13695E-02  0.29540E-02  0.61828E-02  0.12477E-01  0.26396E-01
  0.55143E-01  0.11261E+00  0.22613E+00  0.44482E+00  0.82494E+00  0.15525E+01
  0.28498E+01  0.51355E+01  0.89051E+01  0.15160E+02  0.24599E+02  0.39033E+02
  0.00000E+00  0.00000E+00  0.00000E+00  0.00000E+00  0.00000E+00  0.00000E+00
  0.00000E+00  0.00000E+00  0.00000E+00  0.00000E+00  0.19222E-04  0.38041E-04
  0.85190E-04  0.21315E-03  0.53984E-03  0.12472E-02  0.27841E-02  0.59869E-02
  0.12496E-01  0.25157E-01  0.53125E-01  0.11085E+00  0.22622E+00  0.45389E+00
  0.89225E+00  0.16538E+01  0.31110E+01  0.57087E+01  0.10285E+02  0.17830E+02
  0.30349E+02  0.49237E+02  0.78119E+02  0.00000E+00  0.00000E+00  0.00000E+00
  0.00000E+00  0.00000E+00  0.00000E+00  0.00000E+00  0.00000E+00  0.00000E+00
  0.00000E+00  0.30805E-04  0.60301E-04  0.13369E-03  0.33197E-03  0.83472E-03
  0.19182E-02  0.42603E-02  0.91231E-02  0.18982E-01  0.38124E-01  0.80343E-01
  0.16740E+00  0.34102E+00  0.68350E+00  0.13425E+01  0.24866E+01  0.46751E+01
  0.85750E+01  0.15443E+02  0.26766E+02  0.45549E+02  0.73886E+02  0.11721E+03
  0.00000E+00  0.00000E+00  0.00000E+00  0.00000E+00  0.00000E+00  0.00000E+00
  0.00000E+00  0.00000E+00  0.00000E+00  0.00000E+00  0.44450E-04  0.86002E-04
  0.18853E-03  0.46356E-03  0.11558E-02  0.26369E-02  0.58236E-02  0.12409E-01
  0.25717E-01  0.51491E-01  0.10827E+00  0.22499E+00  0.45763E+00  0.91599E+00
  0.17972E+01  0.33260E+01  0.62490E+01  0.11456E+02  0.20623E+02  0.35730E+02
  0.60788E+02  0.98582E+02  0.15636E+03  0.00000E+00  0.00000E+00  0.00000E+00
  0.00000E+00  0.00000E+00  0.00000E+00  0.00000E+00  0.00000E+00  0.00000E+00
  0.00000E+00  0.60896E-04  0.11635E-03  0.25202E-03  0.61291E-03  0.15138E-02
  0.34243E-02  0.75077E-02  0.15907E-01  0.32805E-01  0.65408E-01  0.13709E+00
  0.28420E+00  0.57672E+00  0.11524E+01  0.22581E+01  0.41745E+01  0.78364E+01
  0.14356E+02  0.25830E+02  0.44732E+02  0.76076E+02  0.12334E+03  0.19559E+03
  0.00000E+00  0.00000E+00  0.00000E+00  0.00000E+00  0.00000E+00  0.00000E+00
  0.00000E+00  0.00000E+00  0.00000E+00  0.00000E+00  0.81045E-04  0.15308E-03
  0.32732E-03  0.78660E-03  0.19214E-02  0.43034E-02  0.93572E-02  0.19683E-01
  0.40353E-01  0.80075E-01  0.16716E+00  0.34549E+00  0.69934E+00  0.13946E+01
  0.27279E+01  0.50363E+01  0.94442E+01  0.17287E+02  0.31081E+02  0.53798E+02
  0.91454E+02  0.14822E+03  0.23498E+03  0.00000E+00  0.00000E+00  0.00000E+00
  0.00000E+00  0.00000E+00  0.00000E+00  0.00000E+00  0.00000E+00  0.00000E+00
  0.00000E+00  0.10558E-03  0.19791E-03  0.41833E-03  0.99336E-03  0.23977E-02
  0.53111E-02  0.11432E-01  0.23847E-01  0.48554E-01  0.95785E-01  0.19895E+00
  0.40954E+00  0.82637E+00  0.16436E+01  0.32085E+01  0.59135E+01  0.11074E+02
  0.20249E+02  0.36376E+02  0.62918E+02  0.10690E+03  0.17318E+03  0.27444E+03
  0.00000E+00  0.00000E+00  0.00000E+00  0.00000E+00  0.00000E+00  0.00000E+00
  0.00000E+00  0.00000E+00  0.00000E+00  0.00000E+00  0.13457E-03  0.25257E-03
  0.52936E-03  0.12438E-02  0.29667E-02  0.64893E-02  0.13815E-01  0.28540E-01
  0.57608E-01  0.11285E+00  0.23303E+00  0.47746E+00  0.95950E+00  0.19024E+01
  0.37040E+01  0.68127E+01  0.12737E+02  0.23257E+02  0.41736E+02  0.72128E+02
  0.12246E+03  0.19828E+03  0.31408E+03  0.00000E+00  0.00000E+00  0.00000E+00
  0.00000E+00  0.00000E+00  0.00000E+00  0.00000E+00  0.00000E+00  0.00000E+00
  0.00000E+00  0.16543E-03  0.31688E-03  0.66398E-03  0.15501E-02  0.36583E-02
  0.79010E-02  0.16615E-01  0.33941E-01  0.67838E-01  0.13177E+00  0.27023E+00
  0.55044E+00  0.11011E+01  0.21745E+01  0.42205E+01  0.77424E+01  0.14445E+02
  0.26333E+02  0.47192E+02  0.81468E+02  0.13820E+03  0.22361E+03  0.35399E+03
  0.00000E+00  0.00000E+00  0.00000E+00  0.00000E+00  0.00000E+00  0.00000E+00
  0.00000E+00  0.00000E+00  0.00000E+00  0.00000E+00  0.18635E-03  0.38264E-03
  0.81759E-03  0.19165E-02  0.44956E-02  0.95984E-02  0.19937E-01  0.40242E-01
  0.79569E-01  0.15305E+00  0.31142E+00  0.63002E+00  0.12529E+01  0.24629E+01
  0.47619E+01  0.87079E+01  0.16206E+02  0.29482E+02  0.52749E+02  0.90940E+02
  0.15410E+03  0.24911E+03  0.39409E+03  0.00000E+00  0.00000E+00  0.00000E+00
  0.00000E+00  0.00000E+00  0.00000E+00  0.00000E+00  0.00000E+00  0.00000E+00
  0.00000E+00  0.16531E-03  0.42560E-03  0.97245E-03  0.23410E-02  0.55121E-02
  0.11671E-01  0.23974E-01  0.47794E-01  0.93370E-01  0.17762E+00  0.35810E+00
  0.71876E+00  0.14193E+01  0.27743E+01  0.53390E+01  0.97248E+01  0.18041E+02
  0.32738E+02  0.58454E+02  0.10061E+03  0.17026E+03  0.27491E+03  0.43450E+03
  0.00000E+00  0.00000E+00  0.00000E+00  0.00000E+00  0.00000E+00  0.00000E+00
  0.00000E+00  0.00000E+00  0.00000E+00  0.00000E+00  0.00000E+00  0.35729E-03
  0.10414E-02  0.27425E-02  0.66506E-02  0.14107E-01  0.28792E-01  0.56805E-01
  0.10966E+00  0.20618E+00  0.41157E+00  0.81870E+00  0.16037E+01  0.31143E+01
  0.59600E+01  0.10804E+02  0.19969E+02  0.36122E+02  0.64335E+02  0.11050E+03
  0.18668E+03  0.30101E+03  0.47520E+03  0.00000E+00  0.00000E+00  0.00000E+00
  0.00000E+00  0.00000E+00  0.00000E+00  0.00000E+00  0.00000E+00  0.00000E+00
  0.00000E+00  0.54357E-03  0.20102E-04  0.83664E-03  0.29541E-02  0.78035E-02
  0.16906E-01  0.34597E-01  0.67791E-01  0.12946E+00  0.24042E+00  0.47485E+00
  0.93518E+00  0.18145E+01  0.34961E+01  0.66458E+01  0.11977E+02  0.22031E+02
  0.39698E+02  0.70479E+02  0.12073E+03  0.20353E+03  0.32757E+03  0.51635E+03
  0.00000E+00  0.00000E+00  0.00000E+00  0.00000E+00  0.00000E+00  0.00000E+00
  0.00000E+00  0.00000E+00  0.00000E+00  0.00000E+00  0.19149E-02  0.10836E-02
  0.00000E+00  0.26467E-02  0.87238E-02  0.19970E-01  0.41554E-01  0.81336E-01
  0.15395E+00  0.28240E+00  0.55157E+00  0.10741E+01  0.20611E+01  0.39345E+01
  0.74185E+01  0.13273E+02  0.24274E+02  0.43528E+02  0.76970E+02  0.13141E+03
  0.22093E+03  0.35475E+03  0.55810E+03  0.00000E+00  0.00000E+00  0.00000E+00
  0.00000E+00  0.00000E+00  0.00000E+00  0.00000E+00  0.00000E+00  0.00000E+00
  0.00000E+00  0.00000E+00  0.48604E-02  0.28198E-02  0.66722E-03  0.83567E-02
  0.22162E-01  0.48175E-01  0.95271E-01  0.17880E+00  0.32340E+00  0.62297E+00
  0.11923E+01  0.22161E+01  0.41800E+01  0.77972E+01  0.13815E+02  0.25065E+02
  0.44646E+02  0.78510E+02  0.13341E+03  0.22344E+03  0.35760E+03  0.56103E+03
  0.00000E+00  0.00000E+00  0.00000E+00  0.00000E+00  0.00000E+00  0.00000E+00
  0.00000E+00  0.00000E+00  0.00000E+00  0.00000E+00  0.00000E+00  0.00000E+00
  0.10260E-01  0.41171E-02  0.60836E-02  0.23608E-01  0.56109E-01  0.11306E+00
  0.21180E+00  0.37760E+00  0.71614E+00  0.13490E+01  0.24362E+01  0.45269E+01
  0.83301E+01  0.14577E+02  0.26178E+02  0.46224E+02  0.80697E+02  0.13629E+03
  0.22712E+03  0.36193E+03  0.56581E+03  0.00000E+00  0.00000E+00  0.00000E+00
  0.00000E+00  0.00000E+00  0.00000E+00  0.00000E+00  0.14713E-03  0.32385E-02
  0.35614E-02  0.00000E+00  0.00000E+00  0.00000E+00  0.16953E-01  0.00000E+00
  0.23743E-01  0.66326E-01  0.13886E+00  0.26006E+00  0.45841E+00  0.85394E+00
  0.15748E+01  0.27682E+01  0.50466E+01  0.91236E+01  0.15709E+02  0.27827E+02
  0.48563E+02  0.83948E+02  0.14061E+03  0.23270E+03  0.36868E+03  0.57359E+03
  0.00000E+00  0.00000E+00  0.00000E+00  0.00000E+00  0.00000E+00  0.00000E+00
  0.10165E-01  0.20077E-01  0.28755E-01  0.35392E-01  0.38667E-01  0.36875E-01
  0.17760E-01  0.00000E+00  0.26183E-01  0.97531E-02  0.66467E-01  0.16007E+00
  0.31176E+00  0.55083E+00  0.10216E+01  0.18587E+01  0.31924E+01  0.57131E+01
  0.10141E+02  0.17151E+02  0.29917E+02  0.51508E+02  0.88011E+02  0.14594E+03
  0.23952E+03  0.37674E+03  0.58258E+03  0.00000E+00  0.00000E+00  0.00000E+00
  0.00000E+00  0.00000E+00  0.19615E-01  0.41728E-01  0.62954E-01  0.80919E-01
  0.94606E-01  0.10275E+00  0.10519E+00  0.10071E+00  0.81345E-01  0.00000E+00
  0.25786E-01  0.63142E-01  0.19325E+00  0.39583E+00  0.70365E+00  0.12971E+01
  0.23191E+01  0.38819E+01  0.67841E+01  0.11759E+02  0.19431E+02  0.33205E+02
  0.56131E+02  0.94397E+02  0.15439E+03  0.25046E+03  0.39006E+03  0.59818E+03
  0.00000E+00  0.00000E+00  0.00000E+00  0.00000E+00  0.30407E-01  0.75850E-01
  0.12146E+00  0.16210E+00  0.19569E+00  0.22003E+00  0.23395E+00  0.23896E+00
  0.23357E+00  0.20889E+00  0.15795E+00  0.79403E-01  0.14982E+00  0.22059E+00
  0.49797E+00  0.90578E+00  0.16789E+01  0.29614E+01  0.48511E+01  0.82846E+01
  0.14010E+02  0.22577E+02  0.37709E+02  0.62419E+02  0.10303E+03  0.16576E+03
  0.26515E+03  0.40792E+03  0.61916E+03  0.00000E+00  0.12664E-01  0.25383E-01
  0.38182E-01  0.12449E+00  0.21635E+00  0.30309E+00  0.37672E+00  0.43390E+00
  0.47442E+00  0.49596E+00  0.50196E+00  0.49144E+00  0.44975E+00  0.36710E+00
  0.25005E+00  0.65499E-01  0.99952E-01  0.66387E+00  0.11956E+01  0.22377E+01
  0.39113E+01  0.62812E+01  0.10485E+02  0.17284E+02  0.27108E+02  0.44133E+02
  0.71315E+02  0.11516E+03  0.18167E+03  0.28565E+03  0.43292E+03  0.64875E+03
  0.00000E+00  0.65785E-01  0.13180E+00  0.19812E+00  0.37964E+00  0.55910E+00
  0.71902E+00  0.84752E+00  0.94124E+00  0.10036E+01  0.10346E+01  0.10372E+01
  0.10149E+01  0.93728E+00  0.79500E+00  0.59722E+00  0.29247E+00  0.14295E+00
  0.69419E+00  0.19122E+01  0.31317E+01  0.54289E+01  0.85451E+01  0.13947E+02
  0.22382E+02  0.34083E+02  0.53912E+02  0.84715E+02  0.13327E+03  0.20524E+03
  0.31589E+03  0.46976E+03  0.69250E+03  0.00000E+00  0.78638E+00  0.15748E+01
  0.23650E+01  0.23677E+01  0.23700E+01  0.23712E+01  0.23701E+01  0.23632E+01
  0.23469E+01  0.23115E+01  0.22537E+01  0.21666E+01  0.19988E+01  0.17225E+01
  0.13633E+01  0.82813E+00  0.82907E-01  0.92545E+00  0.22315E+01  0.45200E+01
  0.79295E+01  0.12305E+02  0.19662E+02  0.30714E+02  0.45339E+02  0.69488E+02
  0.10578E+03  0.16140E+03  0.24148E+03  0.36200E+03  0.52563E+03  0.75878E+03
  0.00000E+00  0.15488E+01  0.31005E+01  0.46542E+01  0.46569E+01  0.46587E+01
  0.46577E+01  0.46519E+01  0.46351E+01  0.46006E+01  0.45313E+01  0.44219E+01
  0.42600E+01  0.39580E+01  0.34704E+01  0.28467E+01  0.19355E+01  0.69358E+00
  0.94549E+00  0.30065E+01  0.65386E+01  0.11636E+02  0.17905E+02  0.28170E+02
  0.43030E+02  0.61789E+02  0.91970E+02  0.13579E+03  0.20092E+03  0.29175E+03
  0.42522E+03  0.60151E+03  0.84812E+03  0.00000E+00  0.30232E+01  0.60502E+01
  0.90786E+01  0.90800E+01  0.90788E+01  0.90715E+01  0.90540E+01  0.90148E+01
  0.89416E+01  0.88035E+01  0.85905E+01  0.82811E+01  0.77197E+01  0.68292E+01
  0.57040E+01  0.40876E+01  0.19239E+01  0.87269E+00  0.43019E+01  0.10053E+02
  0.18113E+02  0.27635E+02  0.42815E+02  0.63977E+02  0.89390E+02  0.12914E+03
  0.18465E+03  0.26434E+03  0.37131E+03  0.52404E+03  0.71897E+03  0.98557E+03
  0.00000E+00  0.58591E+01  0.11723E+02  0.17587E+02  0.17584E+02  0.17575E+02
  0.17554E+02  0.17512E+02  0.17428E+02  0.17280E+02  0.17011E+02  0.16604E+02
  0.16021E+02  0.14982E+02  0.13358E+02  0.11324E+02  0.84380E+01  0.46285E+01
  0.21623E+00  0.60399E+01  0.15631E+02  0.28744E+02  0.43708E+02  0.66993E+02
  0.98337E+02  0.13419E+03  0.18872E+03  0.26186E+03  0.36303E+03  0.49319E+03
  0.67313E+03  0.89364E+03  0.11873E+04  0.00000E+00  0.11173E+02  0.22353E+02
  0.33527E+02  0.33514E+02  0.33489E+02  0.33439E+02  0.33350E+02  0.33182E+02
  0.32895E+02  0.32388E+02  0.31629E+02  0.30550E+02  0.28660E+02  0.25731E+02
  0.22088E+02  0.16968E+02  0.10278E+02  0.18739E+01  0.80766E+01  0.24226E+02
  0.45871E+02  0.69874E+02  0.10646E+03  0.15421E+03  0.20640E+03  0.28376E+03
  0.38348E+03  0.51628E+03  0.67956E+03  0.89755E+03  0.11525E+04  0.14818E+04
  0.00000E+00  0.22337E+02  0.44681E+02  0.67008E+02  0.66975E+02  0.66916E+02
  0.66807E+02  0.66622E+02  0.66288E+02  0.65729E+02  0.64759E+02  0.63319E+02
  0.61285E+02  0.57762E+02  0.52345E+02  0.45638E+02  0.36285E+02  0.24160E+02
  0.90754E+01  0.85672E+01  0.36860E+02  0.74154E+02  0.11450E+03  0.17489E+03
  0.25153E+03  0.33177E+03  0.44773E+03  0.59127E+03  0.77495E+03  0.98965E+03
  0.12651E+04  0.15694E+04  0.19481E+04  0.00000E+00  0.42821E+02  0.85648E+02
  0.12844E+03  0.12836E+03  0.12824E+03  0.12802E+03  0.12766E+03  0.12702E+03
  0.12597E+03  0.12418E+03  0.12154E+03  0.11782E+03  0.11144E+03  0.10168E+03
  0.89644E+02  0.72944E+02  0.51421E+02  0.24830E+02  0.59989E+01  0.54984E+02
  0.11875E+03  0.18645E+03  0.28634E+03  0.41030E+03  0.53547E+03  0.71249E+03
  0.92383E+03  0.11844E+04  0.14741E+04  0.18313E+04  0.22016E+04  0.26442E+04
  0.00000E+00  0.85714E+02  0.17143E+03  0.25706E+03  0.25691E+03  0.25665E+03
  0.25621E+03  0.25550E+03  0.25428E+03  0.25228E+03  0.24891E+03  0.24395E+03
  0.23700E+03  0.22515E+03  0.20710E+03  0.18490E+03  0.15422E+03  0.11487E+03
  0.66519E+02  0.10846E+02  0.76959E+02  0.19010E+03  0.30840E+03  0.48083E+03
  0.69074E+03  0.89598E+03  0.11806E+04  0.15090E+04  0.18992E+04  0.23109E+04
  0.27968E+04  0.32638E+04  0.37947E+04  0.00000E+00  0.15339E+03  0.30678E+03
  0.46000E+03  0.45971E+03  0.45926E+03  0.45850E+03  0.45727E+03  0.45519E+03
  0.45181E+03  0.44613E+03  0.43782E+03  0.42619E+03  0.40644E+03  0.37646E+03
  0.33962E+03  0.28887E+03  0.22394E+03  0.14444E+03  0.53292E+02  0.89768E+02
  0.27291E+03  0.46248E+03  0.73661E+03  0.10660E+04  0.13810E+04  0.18119E+04
  0.22965E+04  0.28568E+04  0.34234E+04  0.40680E+04  0.46454E+04  0.52707E+04
  0.00000E+00  0.27380E+03  0.54760E+03  0.82110E+03  0.82059E+03  0.81979E+03
  0.81847E+03  0.81637E+03  0.81283E+03  0.80711E+03  0.79755E+03  0.78358E+03
  0.76409E+03  0.73110E+03  0.68112E+03  0.61979E+03  0.53549E+03  0.42787E+03
  0.29644E+03  0.14627E+03  0.88495E+02  0.38748E+03  0.69452E+03  0.11356E+04
  0.16601E+04  0.21524E+04  0.28178E+04  0.35500E+04  0.43754E+04  0.51775E+04
  0.60573E+04  0.67870E+04  0.75337E+04  0.00000E+00  0.00000E+00  0.00000E+00
  0.00000E+00  0.00000E+00  0.00000E+00  0.00000E+00  0.00000E+00  0.00000E+00
  0.00000E+00  0.00000E+00  0.00000E+00  0.00000E+00  0.00000E+00  0.00000E+00
  0.00000E+00  0.00000E+00  0.00000E+00  0.00000E+00  0.00000E+00  0.00000E+00
  0.00000E+00  0.00000E+00  0.00000E+00  0.00000E+00  0.00000E+00  0.00000E+00
  0.00000E+00  0.00000E+00  0.00000E+00  0.00000E+00  0.00000E+00  0.00000E+00
  0.00000E+00  0.00000E+00  0.00000E+00  0.00000E+00  0.00000E+00  0.00000E+00
  0.00000E+00  0.00000E+00  0.00000E+00  0.00000E+00  0.70506E-05  0.13878E-04
  0.31187E-04  0.79511E-04  0.20342E-03  0.46953E-03  0.10480E-02  0.22604E-02
  0.47215E-02  0.95485E-02  0.20241E-01  0.42458E-01  0.87226E-01  0.17516E+00
  0.34456E+00  0.63900E+00  0.12025E+01  0.22074E+01  0.39780E+01  0.68978E+01
  0.11743E+02  0.19054E+02  0.30235E+02  0.00000E+00  0.00000E+00  0.00000E+00
  0.00000E+00  0.00000E+00  0.00000E+00  0.00000E+00  0.00000E+00  0.00000E+00
  0.00000E+00  0.14912E-04  0.29063E-04  0.64775E-04  0.16396E-03  0.41715E-03
  0.95791E-03  0.21305E-02  0.45785E-02  0.95430E-02  0.19256E-01  0.40757E-01
  0.85363E-01  0.17523E+00  0.35158E+00  0.69113E+00  0.12810E+01  0.24098E+01
  0.44219E+01  0.79665E+01  0.13811E+02  0.23508E+02  0.38139E+02  0.60511E+02
  0.00000E+00  0.00000E+00  0.00000E+00  0.00000E+00  0.00000E+00  0.00000E+00
  0.00000E+00  0.00000E+00  0.00000E+00  0.00000E+00  0.23911E-04  0.46112E-04
  0.10172E-03  0.25550E-03  0.64518E-03  0.14736E-02  0.32602E-02  0.69821E-02
  0.14499E-01  0.29181E-01  0.61622E-01  0.12891E+00  0.26416E+00  0.52944E+00
  0.10399E+01  0.19261E+01  0.36213E+01  0.66422E+01  0.11962E+02  0.20733E+02
  0.35282E+02  0.57232E+02  0.90790E+02  0.00000E+00  0.00000E+00  0.00000E+00
  0.00000E+00  0.00000E+00  0.00000E+00  0.00000E+00  0.00000E+00  0.00000E+00
  0.00000E+00  0.34498E-04  0.65735E-04  0.14348E-03  0.35674E-03  0.89347E-03
  0.20260E-02  0.44565E-02  0.94969E-02  0.19646E-01  0.39412E-01  0.83003E-01
  0.17326E+00  0.35448E+00  0.70952E+00  0.13921E+01  0.25763E+01  0.48404E+01
  0.88736E+01  0.15974E+02  0.27676E+02  0.47086E+02  0.76361E+02  0.12112E+03
  0.00000E+00  0.00000E+00  0.00000E+00  0.00000E+00  0.00000E+00  0.00000E+00
  0.00000E+00  0.00000E+00  0.00000E+00  0.00000E+00  0.47273E-04  0.88942E-04
  0.19177E-03  0.47162E-03  0.11699E-02  0.26304E-02  0.57435E-02  0.12170E-01
  0.25055E-01  0.50065E-01  0.10512E+00  0.21885E+00  0.44673E+00  0.89267E+00
  0.17491E+01  0.32335E+01  0.60700E+01  0.11120E+02  0.20008E+02  0.34649E+02
  0.58928E+02  0.95540E+02  0.15150E+03  0.00000E+00  0.00000E+00  0.00000E+00
  0.00000E+00  0.00000E+00  0.00000E+00  0.00000E+00  0.00000E+00  0.00000E+00
  0.00000E+00  0.62908E-04  0.11698E-03  0.24904E-03  0.60525E-03  0.14851E-02
  0.33060E-02  0.71588E-02  0.15060E-01  0.30823E-01  0.61291E-01  0.12818E+00
  0.26599E+00  0.54171E+00  0.10802E+01  0.21130E+01  0.39011E+01  0.73154E+01
  0.13390E+02  0.24075E+02  0.41671E+02  0.70840E+02  0.11481E+03  0.18201E+03
  0.00000E+00  0.00000E+00  0.00000E+00  0.00000E+00  0.00000E+00  0.00000E+00
  0.00000E+00  0.00000E+00  0.00000E+00  0.00000E+00  0.81945E-04  0.15126E-03
  0.31825E-03  0.76430E-03  0.18534E-02  0.40805E-02  0.87481E-02  0.18251E-01
  0.37075E-01  0.73300E-01  0.15258E+00  0.31537E+00  0.64011E+00  0.12732E+01
  0.24853E+01  0.45806E+01  0.85781E+01  0.15684E+02  0.28177E+02  0.48736E+02
  0.82805E+02  0.13414E+03  0.21258E+03  0.00000E+00  0.00000E+00  0.00000E+00
  0.00000E+00  0.00000E+00  0.00000E+00  0.00000E+00  0.00000E+00  0.00000E+00
  0.00000E+00  0.10446E-03  0.19300E-03  0.40269E-03  0.95693E-03  0.22929E-02
  0.49859E-02  0.10572E-01  0.21838E-01  0.43993E-01  0.86358E-01  0.17871E+00
  0.36761E+00  0.74323E+00  0.14736E+01  0.28691E+01  0.52771E+01  0.98659E+01
  0.18015E+02  0.32329E+02  0.55870E+02  0.94860E+02  0.15359E+03  0.24329E+03
  0.00000E+00  0.00000E+00  0.00000E+00  0.00000E+00  0.00000E+00  0.00000E+00
  0.00000E+00  0.00000E+00  0.00000E+00  0.00000E+00  0.12841E-03  0.24222E-03
  0.50517E-03  0.11930E-02  0.28276E-02  0.60699E-02  0.12714E-01  0.25971E-01
  0.51809E-01  0.10084E+00  0.20723E+00  0.42387E+00  0.85287E+00  0.16844E+01
  0.32692E+01  0.59973E+01  0.11189E+02  0.20397E+02  0.36555E+02  0.63105E+02
  0.10705E+03  0.17320E+03  0.27420E+03  0.00000E+00  0.00000E+00  0.00000E+00
  0.00000E+00  0.00000E+00  0.00000E+00  0.00000E+00  0.00000E+00  0.00000E+00
  0.00000E+00  0.14464E-03  0.29244E-03  0.62200E-03  0.14750E-02  0.34750E-02
  0.73731E-02  0.15257E-01  0.30794E-01  0.60763E-01  0.11713E+00  0.23881E+00
  0.48509E+00  0.97047E+00  0.19077E+01  0.36886E+01  0.67451E+01  0.12553E+02
  0.22836E+02  0.40859E+02  0.70442E+02  0.11937E+03  0.19296E+03  0.30526E+03
  0.00000E+00  0.00000E+00  0.00000E+00  0.00000E+00  0.00000E+00  0.00000E+00
  0.00000E+00  0.00000E+00  0.00000E+00  0.00000E+00  0.12832E-03  0.32529E-03
  0.73978E-03  0.18016E-02  0.42609E-02  0.89670E-02  0.18346E-01  0.36578E-01
  0.71307E-01  0.13594E+00  0.27460E+00  0.55342E+00  0.10994E+01  0.21490E+01
  0.41355E+01  0.75328E+01  0.13975E+02  0.25358E+02  0.45278E+02  0.77929E+02
  0.13188E+03  0.21295E+03  0.33657E+03  0.00000E+00  0.00000E+00  0.00000E+00
  0.00000E+00  0.00000E+00  0.00000E+00  0.00000E+00  0.00000E+00  0.00000E+00
  0.00000E+00  0.00000E+00  0.27304E-03  0.79236E-03  0.21105E-02  0.51405E-02
  0.10838E-01  0.22033E-01  0.43469E-01  0.83750E-01  0.15779E+00  0.31559E+00
  0.63038E+00  0.12422E+01  0.24123E+01  0.46166E+01  0.83691E+01  0.15468E+02
  0.27980E+02  0.49834E+02  0.85592E+02  0.14460E+03  0.23316E+03  0.36809E+03
  0.00000E+00  0.00000E+00  0.00000E+00  0.00000E+00  0.00000E+00  0.00000E+00
  0.00000E+00  0.00000E+00  0.00000E+00  0.00000E+00  0.42191E-03  0.15364E-04
  0.63651E-03  0.22732E-02  0.60318E-02  0.12988E-01  0.26475E-01  0.51876E-01
  0.98869E-01  0.18400E+00  0.36415E+00  0.72007E+00  0.14055E+01  0.27081E+01
  0.51478E+01  0.92771E+01  0.17065E+02  0.30750E+02  0.54593E+02  0.93518E+02
  0.15765E+03  0.25374E+03  0.39996E+03  0.00000E+00  0.00000E+00  0.00000E+00
  0.00000E+00  0.00000E+00  0.00000E+00  0.00000E+00  0.00000E+00  0.00000E+00
  0.00000E+00  0.14863E-02  0.82822E-03  0.00000E+00  0.20369E-02  0.67434E-02
  0.15341E-01  0.31796E-01  0.62241E-01  0.11757E+00  0.21613E+00  0.42298E+00
  0.82704E+00  0.15965E+01  0.30476E+01  0.57463E+01  0.10281E+02  0.18802E+02
  0.33716E+02  0.59621E+02  0.10179E+03  0.17113E+03  0.27479E+03  0.43230E+03
  0.00000E+00  0.00000E+00  0.00000E+00  0.00000E+00  0.00000E+00  0.00000E+00
  0.00000E+00  0.00000E+00  0.00000E+00  0.00000E+00  0.00000E+00  0.37497E-02
  0.21704E-02  0.51683E-03  0.64730E-02  0.17098E-01  0.37094E-01  0.73208E-01
  0.13768E+00  0.24903E+00  0.47967E+00  0.92175E+00  0.17166E+01  0.32378E+01
  0.60397E+01  0.10701E+02  0.19415E+02  0.34582E+02  0.60814E+02  0.10334E+03
  0.17308E+03  0.27699E+03  0.43457E+03  0.00000E+00  0.00000E+00  0.00000E+00
  0.00000E+00  0.00000E+00  0.00000E+00  0.00000E+00  0.00000E+00  0.00000E+00
  0.00000E+00  0.00000E+00  0.00000E+00  0.79013E-02  0.32022E-02  0.47313E-02
  0.18287E-01  0.43289E-01  0.87228E-01  0.16343E+00  0.29192E+00  0.55359E+00
  0.10429E+01  0.18870E+01  0.35065E+01  0.64525E+01  0.11291E+02  0.20277E+02
  0.35805E+02  0.62508E+02  0.10557E+03  0.17593E+03  0.28035E+03  0.43828E+03
  0.00000E+00  0.00000E+00  0.00000E+00  0.00000E+00  0.00000E+00  0.00000E+00
  0.00000E+00  0.00000E+00  0.46893E-03  0.45577E-03  0.00000E+00  0.00000E+00
  0.00000E+00  0.13179E-01  0.00000E+00  0.18427E-01  0.51376E-01  0.10735E+00
  0.20103E+00  0.35441E+00  0.66019E+00  0.12174E+01  0.21443E+01  0.39090E+01
  0.70671E+01  0.12168E+02  0.21555E+02  0.37616E+02  0.65026E+02  0.10891E+03
  0.18025E+03  0.28558E+03  0.44430E+03  0.00000E+00  0.00000E+00  0.00000E+00
  0.00000E+00  0.00000E+00  0.00000E+00  0.45116E-02  0.12283E-01  0.19210E-01
  0.24544E-01  0.27250E-01  0.25640E-01  0.91681E-02  0.00000E+00  0.20729E-01
  0.75999E-02  0.51589E-01  0.12399E+00  0.24102E+00  0.42586E+00  0.79137E+00
  0.14369E+01  0.24728E+01  0.44253E+01  0.78550E+01  0.13285E+02  0.23174E+02
  0.39898E+02  0.68173E+02  0.11305E+03  0.18553E+03  0.29182E+03  0.45127E+03
  0.00000E+00  0.00000E+00  0.00000E+00  0.00000E+00  0.00000E+00  0.93870E-02
  0.26387E-01  0.43073E-01  0.57715E-01  0.69229E-01  0.76262E-01  0.78858E-01
  0.75521E-01  0.60542E-01  0.00000E+00  0.22284E-01  0.49199E-01  0.14969E+00
  0.30661E+00  0.54505E+00  0.10047E+01  0.17929E+01  0.30069E+01  0.52550E+01
  0.91083E+01  0.15051E+02  0.25721E+02  0.43479E+02  0.73120E+02  0.11959E+03
  0.19401E+03  0.30214E+03  0.46335E+03  0.00000E+00  0.00000E+00  0.00000E+00
  0.00000E+00  0.12999E-01  0.46868E-01  0.82186E-01  0.11543E+00  0.14281E+00
  0.16374E+00  0.17623E+00  0.18128E+00  0.17797E+00  0.15951E+00  0.12036E+00
  0.59927E-01  0.32639E+00  0.17369E+00  0.38649E+00  0.70161E+00  0.13004E+01
  0.22939E+01  0.37577E+01  0.64172E+01  0.10852E+02  0.17488E+02  0.29209E+02
  0.48350E+02  0.79808E+02  0.12840E+03  0.20538E+03  0.31598E+03  0.47960E+03
  0.00000E+00  0.35132E-02  0.70416E-02  0.10594E-01  0.73484E-01  0.14360E+00
  0.21209E+00  0.27322E+00  0.32122E+00  0.35580E+00  0.37625E+00  0.38250E+00
  0.37612E+00  0.34492E+00  0.28209E+00  0.19214E+00  0.50024E-01  0.71173E-01
  0.53148E+00  0.92795E+00  0.17333E+01  0.30297E+01  0.48654E+01  0.81220E+01
  0.13388E+02  0.20998E+02  0.34185E+02  0.55240E+02  0.89205E+02  0.14072E+03
  0.22127E+03  0.33534E+03  0.50252E+03  0.00000E+00  0.36781E-01  0.73697E-01
  0.11072E+00  0.24804E+00  0.38937E+00  0.51907E+00  0.62690E+00  0.70712E+00
  0.76284E+00  0.79171E+00  0.79693E+00  0.77984E+00  0.72310E+00  0.61335E+00
  0.46171E+00  0.22567E+00  0.10986E+00  0.51047E+00  0.14886E+01  0.24354E+01
  0.42136E+01  0.66190E+01  0.10803E+02  0.17337E+02  0.26401E+02  0.41760E+02
  0.65620E+02  0.10323E+03  0.15898E+03  0.24469E+03  0.36387E+03  0.53641E+03
  0.00000E+00  0.60913E+00  0.12199E+01  0.18320E+01  0.18340E+01  0.18358E+01
  0.18367E+01  0.18358E+01  0.18305E+01  0.18179E+01  0.17904E+01  0.17457E+01
  0.16782E+01  0.15483E+01  0.13342E+01  0.10560E+01  0.64147E+00  0.64219E-01
  0.71685E+00  0.17285E+01  0.35012E+01  0.61421E+01  0.95313E+01  0.15230E+02
  0.23791E+02  0.35119E+02  0.53826E+02  0.81940E+02  0.12502E+03  0.18705E+03
  0.28040E+03  0.40715E+03  0.58775E+03  0.00000E+00  0.11997E+01  0.24016E+01
  0.36051E+01  0.36072E+01  0.36086E+01  0.36079E+01  0.36034E+01  0.35903E+01
  0.35636E+01  0.35100E+01  0.34252E+01  0.32998E+01  0.30659E+01  0.26882E+01
  0.22050E+01  0.14992E+01  0.53725E+00  0.73237E+00  0.23289E+01  0.50648E+01
  0.90135E+01  0.13869E+02  0.21820E+02  0.33331E+02  0.47862E+02  0.71239E+02
  0.10518E+03  0.15563E+03  0.22599E+03  0.32937E+03  0.46593E+03  0.65695E+03
  0.00000E+00  0.23417E+01  0.46865E+01  0.70323E+01  0.70334E+01  0.70324E+01
  0.70267E+01  0.70132E+01  0.69829E+01  0.69261E+01  0.68191E+01  0.66542E+01
  0.64145E+01  0.59797E+01  0.52899E+01  0.44183E+01  0.31662E+01  0.14902E+01
  0.67598E+00  0.33322E+01  0.77869E+01  0.14030E+02  0.21406E+02  0.33164E+02
  0.49556E+02  0.69241E+02  0.10003E+03  0.14303E+03  0.20475E+03  0.28761E+03
  0.40592E+03  0.55691E+03  0.76342E+03  0.00000E+00  0.45385E+01  0.90807E+01
  0.13622E+02  0.13620E+02  0.13614E+02  0.13597E+02  0.13565E+02  0.13500E+02
  0.13385E+02  0.13177E+02  0.12862E+02  0.12409E+02  0.11605E+02  0.10347E+02
  0.87712E+01  0.65361E+01  0.35852E+01  0.16749E+00  0.46785E+01  0.12108E+02
  0.22265E+02  0.33856E+02  0.51893E+02  0.76172E+02  0.10394E+03  0.14618E+03
  0.20284E+03  0.28120E+03  0.38202E+03  0.52140E+03  0.69221E+03  0.91966E+03
  0.00000E+00  0.86549E+01  0.17314E+02  0.25970E+02  0.25960E+02  0.25941E+02
  0.25902E+02  0.25833E+02  0.25703E+02  0.25481E+02  0.25088E+02  0.24500E+02
  0.23664E+02  0.22200E+02  0.19931E+02  0.17109E+02  0.13143E+02  0.79614E+01
  0.14515E+01  0.62561E+01  0.18766E+02  0.35532E+02  0.54124E+02  0.82461E+02
  0.11945E+03  0.15988E+03  0.21980E+03  0.29704E+03  0.39991E+03  0.52638E+03
  0.69524E+03  0.89271E+03  0.11478E+04  0.00000E+00  0.17302E+02  0.34610E+02
  0.51904E+02  0.51879E+02  0.51833E+02  0.51749E+02  0.51605E+02  0.51347E+02
  0.50913E+02  0.50162E+02  0.49047E+02  0.47471E+02  0.44742E+02  0.40546E+02
  0.35351E+02  0.28106E+02  0.18714E+02  0.70297E+01  0.66361E+01  0.28552E+02
  0.57440E+02  0.88691E+02  0.13547E+03  0.19484E+03  0.25699E+03  0.34681E+03
  0.45800E+03  0.60027E+03  0.76658E+03  0.97997E+03  0.12156E+04  0.15090E+04
  0.00000E+00  0.33169E+02  0.66343E+02  0.99486E+02  0.99429E+02  0.99332E+02
  0.99163E+02  0.98882E+02  0.98391E+02  0.97579E+02  0.96191E+02  0.94144E+02
  0.91265E+02  0.86322E+02  0.78764E+02  0.69438E+02  0.56502E+02  0.39831E+02
  0.19233E+02  0.46467E+01  0.42591E+02  0.91983E+02  0.14443E+03  0.22180E+03
  0.31782E+03  0.41477E+03  0.55190E+03  0.71560E+03  0.91742E+03  0.11419E+04
  0.14185E+04  0.17053E+04  0.20482E+04  0.00000E+00  0.66394E+02  0.13279E+03
  0.19912E+03  0.19900E+03  0.19880E+03  0.19846E+03  0.19791E+03  0.19696E+03
  0.19542E+03  0.19280E+03  0.18896E+03  0.18358E+03  0.17440E+03  0.16042E+03
  0.14322E+03  0.11946E+03  0.88980E+02  0.51525E+02  0.84011E+01  0.59613E+02
  0.14725E+03  0.23888E+03  0.37245E+03  0.53504E+03  0.69403E+03  0.91451E+03
  0.11688E+04  0.14711E+04  0.17900E+04  0.21664E+04  0.25281E+04  0.29394E+04
  0.00000E+00  0.11881E+03  0.23763E+03  0.35631E+03  0.35609E+03  0.35574E+03
  0.35515E+03  0.35420E+03  0.35259E+03  0.34997E+03  0.34557E+03  0.33913E+03
  0.33013E+03  0.31483E+03  0.29160E+03  0.26307E+03  0.22376E+03  0.17347E+03
  0.11188E+03  0.41280E+02  0.69534E+02  0.21140E+03  0.35824E+03  0.57058E+03
  0.82575E+03  0.10697E+04  0.14035E+04  0.17789E+04  0.22128E+04  0.26518E+04
  0.31510E+04  0.35983E+04  0.40827E+04  0.00000E+00  0.21209E+03  0.42417E+03
  0.63602E+03  0.63563E+03  0.63500E+03  0.63398E+03  0.63236E+03  0.62961E+03
  0.62519E+03  0.61778E+03  0.60696E+03  0.59186E+03  0.56631E+03  0.52759E+03
  0.48009E+03  0.41479E+03  0.33143E+03  0.22962E+03  0.11330E+03  0.68548E+02
  0.30014E+03  0.53798E+03  0.87964E+03  0.12859E+04  0.16672E+04  0.21827E+04
  0.27498E+04  0.33892E+04  0.40105E+04  0.46919E+04  0.52572E+04  0.58355E+04
  0.00000E+00  0.00000E+00  0.00000E+00  0.00000E+00  0.00000E+00  0.00000E+00
  0.00000E+00  0.00000E+00  0.00000E+00  0.00000E+00  0.00000E+00  0.00000E+00
  0.00000E+00  0.00000E+00  0.00000E+00  0.00000E+00  0.00000E+00  0.00000E+00
  0.00000E+00  0.00000E+00  0.00000E+00  0.00000E+00  0.00000E+00  0.00000E+00
  0.00000E+00  0.00000E+00  0.00000E+00  0.00000E+00  0.00000E+00  0.00000E+00
  0.00000E+00  0.00000E+00  0.00000E+00  0.00000E+00  0.00000E+00  0.00000E+00
  0.00000E+00  0.00000E+00  0.00000E+00  0.00000E+00  0.00000E+00  0.00000E+00
  0.00000E+00  0.57685E-05  0.11204E-04  0.25121E-04  0.64489E-04  0.16469E-03
  0.37944E-03  0.84521E-03  0.18196E-02  0.38086E-02  0.77169E-02  0.16360E-01
  0.34529E-01  0.71220E-01  0.14302E+00  0.28133E+00  0.52174E+00  0.98187E+00
  0.18023E+01  0.32480E+01  0.56321E+01  0.95882E+01  0.15558E+02  0.24687E+02
  0.00000E+00  0.00000E+00  0.00000E+00  0.00000E+00  0.00000E+00  0.00000E+00
  0.00000E+00  0.00000E+00  0.00000E+00  0.00000E+00  0.12204E-04  0.23466E-04
  0.52195E-04  0.13305E-03  0.33785E-03  0.77423E-03  0.17183E-02  0.36873E-02
  0.76978E-02  0.15557E-01  0.32931E-01  0.69442E-01  0.14308E+00  0.28707E+00
  0.56431E+00  0.10460E+01  0.19676E+01  0.36105E+01  0.65046E+01  0.11277E+02
  0.19194E+02  0.31140E+02  0.49407E+02  0.00000E+00  0.00000E+00  0.00000E+00
  0.00000E+00  0.00000E+00  0.00000E+00  0.00000E+00  0.00000E+00  0.00000E+00
  0.00000E+00  0.19564E-04  0.37209E-04  0.81962E-04  0.20716E-03  0.52252E-03
  0.11908E-02  0.26294E-02  0.56203E-02  0.11696E-01  0.23588E-01  0.49815E-01
  0.10479E+00  0.21568E+00  0.43228E+00  0.84905E+00  0.15727E+01  0.29568E+01
  0.54233E+01  0.97673E+01  0.16928E+02  0.28808E+02  0.46729E+02  0.74130E+02
  0.00000E+00  0.00000E+00  0.00000E+00  0.00000E+00  0.00000E+00  0.00000E+00
  0.00000E+00  0.00000E+00  0.00000E+00  0.00000E+00  0.28233E-04  0.53076E-04
  0.11556E-03  0.28937E-03  0.72332E-03  0.16376E-02  0.35943E-02  0.76455E-02
  0.15847E-01  0.31854E-01  0.67091E-01  0.14090E+00  0.28943E+00  0.57932E+00
  0.11366E+01  0.21036E+01  0.39522E+01  0.72452E+01  0.13043E+02  0.22598E+02
  0.38445E+02  0.62349E+02  0.98891E+02  0.00000E+00  0.00000E+00  0.00000E+00
  0.00000E+00  0.00000E+00  0.00000E+00  0.00000E+00  0.00000E+00  0.00000E+00
  0.00000E+00  0.38683E-04  0.71814E-04  0.15447E-03  0.38252E-03  0.94720E-03
  0.21257E-02  0.46322E-02  0.97953E-02  0.20205E-01  0.40461E-01  0.84965E-01
  0.17796E+00  0.36475E+00  0.72886E+00  0.14281E+01  0.26402E+01  0.49562E+01
  0.90795E+01  0.16336E+02  0.28291E+02  0.48115E+02  0.78008E+02  0.12370E+03
  0.00000E+00  0.00000E+00  0.00000E+00  0.00000E+00  0.00000E+00  0.00000E+00
  0.00000E+00  0.00000E+00  0.00000E+00  0.00000E+00  0.51471E-04  0.94456E-04
  0.20061E-03  0.49101E-03  0.12025E-02  0.26721E-02  0.57737E-02  0.12123E-01
  0.24857E-01  0.49531E-01  0.10362E+00  0.21633E+00  0.44230E+00  0.88199E+00
  0.17253E+01  0.31853E+01  0.59730E+01  0.10933E+02  0.19658E+02  0.34025E+02
  0.57841E+02  0.93744E+02  0.14861E+03  0.00000E+00  0.00000E+00  0.00000E+00
  0.00000E+00  0.00000E+00  0.00000E+00  0.00000E+00  0.00000E+00  0.00000E+00
  0.00000E+00  0.67042E-04  0.12213E-03  0.25630E-03  0.62000E-03  0.15007E-02
  0.32970E-02  0.70555E-02  0.14689E-01  0.29906E-01  0.59247E-01  0.12331E+00
  0.25647E+00  0.52264E+00  0.10395E+01  0.20292E+01  0.37401E+01  0.70040E+01
  0.12806E+02  0.23006E+02  0.39793E+02  0.67610E+02  0.10953E+03  0.17357E+03
  0.00000E+00  0.00000E+00  0.00000E+00  0.00000E+00  0.00000E+00  0.00000E+00
  0.00000E+00  0.00000E+00  0.00000E+00  0.00000E+00  0.85458E-04  0.15584E-03
  0.32433E-03  0.77638E-03  0.18566E-02  0.40291E-02  0.85263E-02  0.17578E-01
  0.35486E-01  0.69797E-01  0.14445E+00  0.29894E+00  0.60684E+00  0.12032E+01
  0.23426E+01  0.43087E+01  0.80555E+01  0.14709E+02  0.26396E+02  0.45618E+02
  0.77453E+02  0.12540E+03  0.19864E+03  0.00000E+00  0.00000E+00  0.00000E+00
  0.00000E+00  0.00000E+00  0.00000E+00  0.00000E+00  0.00000E+00  0.00000E+00
  0.00000E+00  0.10506E-03  0.19553E-03  0.40690E-03  0.96767E-03  0.22896E-02
  0.49056E-02  0.10254E-01  0.20906E-01  0.41791E-01  0.81499E-01  0.16752E+00
  0.34468E+00  0.69637E+00  0.13753E+01  0.26693E+01  0.48967E+01  0.91359E+01
  0.16654E+02  0.29847E+02  0.51525E+02  0.87407E+02  0.14142E+03  0.22388E+03
  0.00000E+00  0.00000E+00  0.00000E+00  0.00000E+00  0.00000E+00  0.00000E+00
  0.00000E+00  0.00000E+00  0.00000E+00  0.00000E+00  0.11834E-03  0.23608E-03
  0.50102E-03  0.11963E-02  0.28134E-02  0.59584E-02  0.12305E-01  0.24789E-01
  0.49014E-01  0.94659E-01  0.19301E+00  0.39450E+00  0.79238E+00  0.15577E+01
  0.30117E+01  0.55074E+01  0.10249E+02  0.18646E+02  0.33361E+02  0.57515E+02
  0.97464E+02  0.15755E+03  0.24925E+03  0.00000E+00  0.00000E+00  0.00000E+00
  0.00000E+00  0.00000E+00  0.00000E+00  0.00000E+00  0.00000E+00  0.00000E+00
  0.00000E+00  0.10498E-03  0.26260E-03  0.59591E-03  0.14614E-02  0.34498E-02
  0.72461E-02  0.14796E-01  0.29442E-01  0.57519E-01  0.10987E+00  0.22197E+00
  0.45006E+00  0.89763E+00  0.17546E+01  0.33767E+01  0.61505E+01  0.11410E+02
  0.20705E+02  0.36970E+02  0.63629E+02  0.10768E+03  0.17387E+03  0.27480E+03
  0.00000E+00  0.00000E+00  0.00000E+00  0.00000E+00  0.00000E+00  0.00000E+00
  0.00000E+00  0.00000E+00  0.00000E+00  0.00000E+00  0.00000E+00  0.22046E-03
  0.63818E-03  0.17119E-02  0.41621E-02  0.87584E-02  0.17770E-01  0.34991E-01
  0.67557E-01  0.12753E+00  0.25509E+00  0.51269E+00  0.10143E+01  0.19696E+01
  0.37694E+01  0.68333E+01  0.12629E+02  0.22846E+02  0.40689E+02  0.69885E+02
  0.11807E+03  0.19038E+03  0.30054E+03  0.00000E+00  0.00000E+00  0.00000E+00
  0.00000E+00  0.00000E+00  0.00000E+00  0.00000E+00  0.00000E+00  0.00000E+00
  0.00000E+00  0.34519E-03  0.12405E-04  0.51267E-03  0.18441E-02  0.48839E-02
  0.10496E-01  0.21353E-01  0.41759E-01  0.79752E-01  0.14871E+00  0.29434E+00
  0.58554E+00  0.11476E+01  0.22111E+01  0.42032E+01  0.75747E+01  0.13934E+02
  0.25107E+02  0.44575E+02  0.76357E+02  0.12872E+03  0.20718E+03  0.32657E+03
  0.00000E+00  0.00000E+00  0.00000E+00  0.00000E+00  0.00000E+00  0.00000E+00
  0.00000E+00  0.00000E+00  0.00000E+00  0.00000E+00  0.12161E-02  0.66864E-03
  0.00000E+00  0.16521E-02  0.54601E-02  0.12398E-01  0.25647E-01  0.50100E-01
  0.94829E-01  0.17467E+00  0.34191E+00  0.67258E+00  0.13035E+01  0.24884E+01
  0.46919E+01  0.83945E+01  0.15352E+02  0.27529E+02  0.48680E+02  0.83111E+02
  0.13973E+03  0.22436E+03  0.35297E+03  0.00000E+00  0.00000E+00  0.00000E+00
  0.00000E+00  0.00000E+00  0.00000E+00  0.00000E+00  0.00000E+00  0.00000E+00
  0.00000E+00  0.00000E+00  0.30556E-02  0.17608E-02  0.42019E-03  0.52742E-02
  0.13876E-01  0.30106E-01  0.59299E-01  0.11151E+00  0.20211E+00  0.39011E+00
  0.74967E+00  0.14016E+01  0.26437E+01  0.49314E+01  0.87371E+01  0.15852E+02
  0.28236E+02  0.49654E+02  0.84378E+02  0.14132E+03  0.22617E+03  0.35483E+03
  0.00000E+00  0.00000E+00  0.00000E+00  0.00000E+00  0.00000E+00  0.00000E+00
  0.00000E+00  0.00000E+00  0.00000E+00  0.00000E+00  0.00000E+00  0.00000E+00
  0.64639E-02  0.26200E-02  0.38631E-02  0.14873E-01  0.35207E-01  0.70944E-01
  0.13290E+00  0.23740E+00  0.45025E+00  0.84989E+00  0.15408E+01  0.28631E+01
  0.52684E+01  0.92192E+01  0.16556E+02  0.29234E+02  0.51037E+02  0.86199E+02
  0.14364E+03  0.22891E+03  0.35785E+03  0.00000E+00  0.00000E+00  0.00000E+00
  0.00000E+00  0.00000E+00  0.00000E+00  0.00000E+00  0.00000E+00  0.00000E+00
  0.00000E+00  0.00000E+00  0.00000E+00  0.00000E+00  0.10886E-01  0.00000E+00
  0.15046E-01  0.41868E-01  0.87479E-01  0.16383E+00  0.28879E+00  0.53904E+00
  0.99400E+00  0.17508E+01  0.31917E+01  0.57703E+01  0.99351E+01  0.17599E+02
  0.30714E+02  0.53093E+02  0.88928E+02  0.14718E+03  0.23317E+03  0.36277E+03
  0.00000E+00  0.00000E+00  0.00000E+00  0.00000E+00  0.00000E+00  0.00000E+00
  0.11034E-02  0.74724E-02  0.13229E-01  0.17769E-01  0.20095E-01  0.18678E-01
  0.37676E-02  0.00000E+00  0.17423E-01  0.62299E-02  0.42038E-01  0.10104E+00
  0.19680E+00  0.34771E+00  0.64491E+00  0.11732E+01  0.20190E+01  0.36133E+01
  0.64136E+01  0.10847E+02  0.18921E+02  0.32576E+02  0.55663E+02  0.92302E+02
  0.15148E+03  0.23827E+03  0.36846E+03  0.00000E+00  0.00000E+00  0.00000E+00
  0.00000E+00  0.00000E+00  0.32377E-02  0.16826E-01  0.30514E-01  0.42993E-01
  0.52907E-01  0.59465E-01  0.62004E-01  0.59663E-01  0.47234E-01  0.00000E+00
  0.20479E-01  0.40564E-01  0.12223E+00  0.25034E+00  0.44503E+00  0.82034E+00
  0.14639E+01  0.24551E+01  0.42907E+01  0.74369E+01  0.12289E+02  0.21001E+02
  0.35501E+02  0.59702E+02  0.97646E+02  0.15841E+03  0.24669E+03  0.37832E+03
  0.00000E+00  0.00000E+00  0.00000E+00  0.00000E+00  0.29014E-02  0.29236E-01
  0.57853E-01  0.85598E-01  0.10939E+00  0.12802E+00  0.13958E+00  0.14462E+00
  0.14293E+00  0.12838E+00  0.96670E-01  0.47342E-01  0.00000E+00  0.14453E+00
  0.31620E+00  0.57286E+00  0.10618E+01  0.18730E+01  0.30681E+01  0.52397E+01
  0.88610E+01  0.14279E+02  0.23849E+02  0.39478E+02  0.65163E+02  0.10484E+03
  0.16770E+03  0.25799E+03  0.39159E+03  0.00000E+00  0.00000E+00  0.00000E+00
  0.00000E+00  0.43087E-01  0.98456E-01  0.15561E+00  0.20729E+00  0.24981E+00
  0.28114E+00  0.30017E+00  0.30783E+00  0.30338E+00  0.27937E+00  0.22849E+00
  0.15563E+00  0.40184E-01  0.46206E-01  0.44804E+00  0.76067E+00  0.14152E+01
  0.24787E+01  0.39726E+01  0.66316E+01  0.10932E+02  0.17145E+02  0.27912E+02
  0.45103E+02  0.72835E+02  0.11490E+03  0.18066E+03  0.27380E+03  0.41030E+03
  0.00000E+00  0.19129E-01  0.38324E-01  0.57595E-01  0.16610E+00  0.28230E+00
  0.39187E+00  0.48594E+00  0.55856E+00  0.60851E+00  0.63715E+00  0.64415E+00
  0.63294E+00  0.58693E+00  0.49885E+00  0.37475E+00  0.18352E+00  0.88982E-01
  0.38745E+00  0.12114E+01  0.19963E+01  0.34404E+01  0.54044E+01  0.88207E+01
  0.14156E+02  0.21556E+02  0.34097E+02  0.53578E+02  0.84287E+02  0.12981E+03
  0.19979E+03  0.29710E+03  0.43798E+03  0.00000E+00  0.49735E+00  0.99601E+00
  0.14958E+01  0.14975E+01  0.14989E+01  0.14997E+01  0.14990E+01  0.14946E+01
  0.14843E+01  0.14619E+01  0.14254E+01  0.13703E+01  0.12642E+01  0.10894E+01
  0.86221E+00  0.52376E+00  0.52435E-01  0.58530E+00  0.14113E+01  0.28587E+01
  0.50150E+01  0.77822E+01  0.12435E+02  0.19425E+02  0.28675E+02  0.43948E+02
  0.66904E+02  0.10208E+03  0.15273E+03  0.22895E+03  0.33244E+03  0.47989E+03
  0.00000E+00  0.97955E+00  0.19609E+01  0.29436E+01  0.29453E+01  0.29464E+01
  0.29458E+01  0.29421E+01  0.29315E+01  0.29097E+01  0.28659E+01  0.27966E+01
  0.26943E+01  0.25033E+01  0.21949E+01  0.18004E+01  0.12241E+01  0.43866E+00
  0.59798E+00  0.19015E+01  0.41354E+01  0.73595E+01  0.11324E+02  0.17816E+02
  0.27215E+02  0.39079E+02  0.58167E+02  0.85879E+02  0.12707E+03  0.18452E+03
  0.26893E+03  0.38043E+03  0.53640E+03  0.00000E+00  0.19120E+01  0.38265E+01
  0.57418E+01  0.57427E+01  0.57419E+01  0.57373E+01  0.57262E+01  0.57015E+01
  0.56551E+01  0.55678E+01  0.54331E+01  0.52375E+01  0.48824E+01  0.43192E+01
  0.36075E+01  0.25852E+01  0.12168E+01  0.55194E+00  0.27207E+01  0.63580E+01
  0.11455E+02  0.17478E+02  0.27079E+02  0.40463E+02  0.56535E+02  0.81676E+02
  0.11678E+03  0.16718E+03  0.23483E+03  0.33143E+03  0.45472E+03  0.62333E+03
  0.00000E+00  0.37056E+01  0.74144E+01  0.11123E+02  0.11121E+02  0.11115E+02
  0.11102E+02  0.11075E+02  0.11023E+02  0.10929E+02  0.10759E+02  0.10502E+02
  0.10132E+02  0.94757E+01  0.84483E+01  0.71617E+01  0.53367E+01  0.29273E+01
  0.13675E+00  0.38200E+01  0.98859E+01  0.18179E+02  0.27644E+02  0.42370E+02
  0.62194E+02  0.84866E+02  0.11936E+03  0.16562E+03  0.22960E+03  0.31192E+03
  0.42572E+03  0.56519E+03  0.75090E+03  0.00000E+00  0.70667E+01  0.14137E+02
  0.21204E+02  0.21196E+02  0.21181E+02  0.21149E+02  0.21092E+02  0.20986E+02
  0.20805E+02  0.20484E+02  0.20004E+02  0.19322E+02  0.18126E+02  0.16274E+02
  0.13969E+02  0.10732E+02  0.65005E+01  0.11852E+01  0.51081E+01  0.15322E+02
  0.29012E+02  0.44192E+02  0.67330E+02  0.97529E+02  0.13054E+03  0.17947E+03
  0.24253E+03  0.32652E+03  0.42979E+03  0.56766E+03  0.72890E+03  0.93719E+03
  0.00000E+00  0.14127E+02  0.28259E+02  0.42379E+02  0.42359E+02  0.42321E+02
  0.42253E+02  0.42135E+02  0.41924E+02  0.41570E+02  0.40957E+02  0.40046E+02
  0.38760E+02  0.36532E+02  0.33106E+02  0.28864E+02  0.22948E+02  0.15280E+02
  0.57398E+01  0.54184E+01  0.23313E+02  0.46899E+02  0.72416E+02  0.11061E+03
  0.15908E+03  0.20983E+03  0.28317E+03  0.37395E+03  0.49012E+03  0.62591E+03
  0.80015E+03  0.99255E+03  0.12321E+04  0.00000E+00  0.27082E+02  0.54169E+02
  0.81230E+02  0.81183E+02  0.81104E+02  0.80966E+02  0.80737E+02  0.80336E+02
  0.79673E+02  0.78540E+02  0.76868E+02  0.74518E+02  0.70482E+02  0.64311E+02
  0.56696E+02  0.46134E+02  0.32522E+02  0.15704E+02  0.37940E+01  0.34775E+02
  0.75104E+02  0.11792E+03  0.18110E+03  0.25950E+03  0.33866E+03  0.45062E+03
  0.58428E+03  0.74907E+03  0.93232E+03  0.11582E+04  0.13924E+04  0.16723E+04
  0.00000E+00  0.54210E+02  0.10842E+03  0.16258E+03  0.16248E+03  0.16232E+03
  0.16204E+03  0.16159E+03  0.16082E+03  0.15956E+03  0.15742E+03  0.15429E+03
  0.14989E+03  0.14239E+03  0.13098E+03  0.11694E+03  0.97540E+02  0.72652E+02
  0.42070E+02  0.68595E+01  0.48673E+02  0.12023E+03  0.19505E+03  0.30410E+03
  0.43686E+03  0.56667E+03  0.74670E+03  0.95435E+03  0.12011E+04  0.14616E+04
  0.17688E+04  0.20642E+04  0.24000E+04  0.00000E+00  0.97010E+02  0.19402E+03
  0.29093E+03  0.29075E+03  0.29046E+03  0.28998E+03  0.28921E+03  0.28789E+03
  0.28575E+03  0.28216E+03  0.27690E+03  0.26955E+03  0.25706E+03  0.23809E+03
  0.21479E+03  0.18270E+03  0.14163E+03  0.91349E+02  0.33705E+02  0.56774E+02
  0.17260E+03  0.29250E+03  0.46588E+03  0.67422E+03  0.87345E+03  0.11460E+04
  0.14525E+04  0.18068E+04  0.21652E+04  0.25728E+04  0.29380E+04  0.33335E+04
  0.00000E+00  0.17317E+03  0.34633E+03  0.51931E+03  0.51899E+03  0.51848E+03
  0.51765E+03  0.51632E+03  0.51408E+03  0.51046E+03  0.50441E+03  0.49558E+03
  0.48325E+03  0.46239E+03  0.43078E+03  0.39199E+03  0.33867E+03  0.27061E+03
  0.18748E+03  0.92512E+02  0.55969E+02  0.24507E+03  0.43926E+03  0.71822E+03
  0.10499E+04  0.13613E+04  0.17821E+04  0.22452E+04  0.27673E+04  0.32746E+04
  0.38309E+04  0.42925E+04  0.47647E+04
