  0.64203E+01  0.67374E+01  0.68993E+01  0.53220E+01  0.18385E+01  0.51907E+01
  0.22406E+02  0.59156E+02  0.12980E+03  0.26748E+03  0.53240E+03  0.10373E+04
  0.19925E+04  0.31127E+04  0.48487E+04  0.75818E+04  0.11890E+05  0.18694E+05
  0.29448E+05  0.41249E+00  0.51886E+00  0.65332E+00  0.82343E+00  0.10389E+01
  0.13121E+01  0.16588E+01  0.20996E+01  0.26605E+01  0.33748E+01  0.42851E+01
  0.54417E+01  0.67026E+01  0.67980E+01  0.68819E+01  0.70172E+01  0.71352E+01
  0.72667E+01  0.74841E+01  0.78464E+01  0.82791E+01  0.89753E+01  0.97728E+01
  0.10978E+02  0.11870E+02  0.12971E+02  0.14260E+02  0.14081E+02  0.12672E+02
  0.87553E+01  0.41201E+01  0.34547E+02  0.95459E+02  0.21825E+03  0.46008E+03
  0.92879E+03  0.18270E+04  0.28404E+04  0.44040E+04  0.68606E+04  0.10727E+05
  0.16823E+05  0.26449E+05  0.62898E+00  0.79025E+00  0.99397E+00  0.12515E+01
  0.15773E+01  0.19899E+01  0.25127E+01  0.31760E+01  0.40184E+01  0.50885E+01
  0.64489E+01  0.81736E+01  0.10357E+02  0.12711E+02  0.12832E+02  0.13052E+02
  0.13376E+02  0.13582E+02  0.13928E+02  0.14503E+02  0.15205E+02  0.16319E+02
  0.17633E+02  0.19596E+02  0.21299E+02  0.23553E+02  0.26474E+02  0.28295E+02
  0.29802E+02  0.30172E+02  0.23165E+02  0.11249E+01  0.47115E+02  0.15083E+03
  0.36350E+03  0.78712E+03  0.16149E+04  0.24967E+04  0.38490E+04  0.59682E+04
  0.92962E+04  0.14536E+05  0.22797E+05  0.95487E+00  0.11981E+01  0.15053E+01
  0.18932E+01  0.23838E+01  0.30040E+01  0.37892E+01  0.47839E+01  0.60447E+01
  0.76438E+01  0.96720E+01  0.12239E+02  0.15484E+02  0.19562E+02  0.23914E+02
  0.24232E+02  0.24746E+02  0.25329E+02  0.25860E+02  0.26746E+02  0.27840E+02
  0.29569E+02  0.31640E+02  0.34709E+02  0.37588E+02  0.41496E+02  0.46736E+02
  0.51364E+02  0.56893E+02  0.63076E+02  0.63865E+02  0.52744E+02  0.20691E+02
  0.59092E+02  0.23580E+03  0.60459E+03  0.13477E+04  0.20711E+04  0.31706E+04
  0.48882E+04  0.75787E+04  0.11805E+05  0.18459E+05  0.14691E+01  0.18405E+01
  0.23093E+01  0.29012E+01  0.36489E+01  0.45938E+01  0.57889E+01  0.73006E+01
  0.92144E+01  0.11638E+02  0.14708E+02  0.18588E+02  0.23488E+02  0.29645E+02
  0.37339E+02  0.45799E+02  0.46573E+02  0.47529E+02  0.48876E+02  0.50259E+02
  0.51983E+02  0.54689E+02  0.57964E+02  0.62780E+02  0.67536E+02  0.74068E+02
  0.82949E+02  0.91992E+02  0.10377E+03  0.11883E+03  0.13142E+03  0.13662E+03
  0.12833E+03  0.83124E+02  0.42444E+02  0.33441E+03  0.96055E+03  0.14697E+04
  0.22309E+04  0.34154E+04  0.52651E+04  0.81635E+04  0.12717E+05  0.22302E+01
  0.27892E+01  0.34944E+01  0.43843E+01  0.55079E+01  0.69269E+01  0.87199E+01
  0.10987E+02  0.13852E+02  0.17478E+02  0.22064E+02  0.27854E+02  0.35158E+02
  0.44333E+02  0.55806E+02  0.70468E+02  0.86666E+02  0.88056E+02  0.90177E+02
  0.93242E+02  0.95845E+02  0.99940E+02  0.10492E+03  0.11221E+03  0.11959E+03
  0.12978E+03  0.14371E+03  0.15878E+03  0.17900E+03  0.20590E+03  0.23391E+03
  0.25999E+03  0.28152E+03  0.27879E+03  0.21478E+03  0.13550E+02  0.47670E+03
  0.73556E+03  0.11051E+04  0.16776E+04  0.25680E+04  0.39590E+04  0.61384E+04
  0.34412E+01  0.42947E+01  0.53709E+01  0.67287E+01  0.84420E+01  0.10605E+02
  0.13337E+02  0.16786E+02  0.21146E+02  0.26655E+02  0.33617E+02  0.42401E+02
  0.53477E+02  0.67390E+02  0.84803E+02  0.10699E+03  0.13543E+03  0.16648E+03
  0.16967E+03  0.17458E+03  0.18050E+03  0.18681E+03  0.19450E+03  0.20573E+03
  0.21730E+03  0.23333E+03  0.25527E+03  0.27995E+03  0.31351E+03  0.35891E+03
  0.41089E+03  0.46917E+03  0.53604E+03  0.59698E+03  0.62393E+03  0.55480E+03
  0.25948E+03  0.34965E+03  0.51895E+03  0.77972E+03  0.11835E+04  0.18118E+04
  0.27931E+04  0.52780E+01  0.65700E+01  0.81990E+01  0.10254E+02  0.12845E+02
  0.16116E+02  0.20244E+02  0.25456E+02  0.32037E+02  0.40345E+02  0.50839E+02
  0.64071E+02  0.80746E+02  0.10170E+03  0.12793E+03  0.16128E+03  0.20387E+03
  0.25791E+03  0.31782E+03  0.32512E+03  0.33446E+03  0.34766E+03  0.35931E+03
  0.37630E+03  0.39397E+03  0.41847E+03  0.45202E+03  0.49053E+03  0.54316E+03
  0.61477E+03  0.70033E+03  0.80304E+03  0.93151E+03  0.10775E+04  0.12236E+04
  0.13243E+04  0.12750E+04  0.18020E+04  0.26364E+04  0.39131E+04  0.58789E+04
  0.89237E+04  0.13661E+05  0.60626E+03  0.60645E+03  0.60669E+03  0.60698E+03
  0.60733E+03  0.60776E+03  0.60827E+03  0.60888E+03  0.60959E+03  0.61035E+03
  0.61117E+03  0.61189E+03  0.61243E+03  0.61253E+03  0.61192E+03  0.61231E+03
  0.61395E+03  0.61597E+03  0.61997E+03  0.62709E+03  0.63613E+03  0.65051E+03
  0.66810E+03  0.69377E+03  0.72056E+03  0.75779E+03  0.80873E+03  0.86791E+03
  0.94894E+03  0.10593E+04  0.11942E+04  0.13616E+04  0.15786E+04  0.18451E+04
  0.21577E+04  0.24917E+04  0.27747E+04  0.38811E+04  0.55841E+04  0.81700E+04
  0.12125E+05  0.18218E+05  0.27653E+05  0.11575E+04  0.11577E+04  0.11581E+04
  0.11585E+04  0.11591E+04  0.11597E+04  0.11605E+04  0.11614E+04  0.11624E+04
  0.11636E+04  0.11647E+04  0.11657E+04  0.11664E+04  0.11664E+04  0.11652E+04
  0.11655E+04  0.11677E+04  0.11705E+04  0.11763E+04  0.11868E+04  0.12003E+04
  0.12220E+04  0.12484E+04  0.12871E+04  0.13275E+04  0.13838E+04  0.14608E+04
  0.15508E+04  0.16742E+04  0.18421E+04  0.20495E+04  0.23115E+04  0.26567E+04
  0.30957E+04  0.36431E+04  0.43012E+04  0.50384E+04  0.69223E+04  0.97720E+04
  0.14061E+05  0.20570E+05  0.30530E+05  0.45869E+05  0.22098E+04  0.22103E+04
  0.22108E+04  0.22115E+04  0.22123E+04  0.22132E+04  0.22144E+04  0.22157E+04
  0.22173E+04  0.22189E+04  0.22206E+04  0.22220E+04  0.22228E+04  0.22224E+04
  0.22201E+04  0.22201E+04  0.22231E+04  0.22268E+04  0.22351E+04  0.22507E+04
  0.22707E+04  0.23032E+04  0.23429E+04  0.24012E+04  0.24619E+04  0.25467E+04
  0.26627E+04  0.27989E+04  0.29854E+04  0.32389E+04  0.35540E+04  0.39553E+04
  0.44879E+04  0.51763E+04  0.60595E+04  0.71748E+04  0.85430E+04  0.11486E+05
  0.15873E+05  0.22408E+05  0.32239E+05  0.47167E+05  0.70005E+05  0.42195E+04
  0.42202E+04  0.42210E+04  0.42220E+04  0.42232E+04  0.42246E+04  0.42263E+04
  0.42284E+04  0.42307E+04  0.42331E+04  0.42355E+04  0.42373E+04  0.42383E+04
  0.42371E+04  0.42329E+04  0.42321E+04  0.42359E+04  0.42406E+04  0.42524E+04
  0.42755E+04  0.43050E+04  0.43537E+04  0.44132E+04  0.45008E+04  0.45918E+04
  0.47192E+04  0.48937E+04  0.50989E+04  0.53800E+04  0.57613E+04  0.62365E+04
  0.68441E+04  0.76525E+04  0.87053E+04  0.10074E+05  0.11842E+05  0.14099E+05
  0.18509E+05  0.24986E+05  0.34529E+05  0.48741E+05  0.70129E+05  0.10260E+06
  0.80565E+04  0.80575E+04  0.80587E+04  0.80602E+04  0.80620E+04  0.80642E+04
  0.80667E+04  0.80697E+04  0.80732E+04  0.80767E+04  0.80801E+04  0.80825E+04
  0.80834E+04  0.80808E+04  0.80731E+04  0.80709E+04  0.80754E+04  0.80812E+04
  0.80977E+04  0.81315E+04  0.81750E+04  0.82477E+04  0.83366E+04  0.84682E+04
  0.86041E+04  0.87953E+04  0.90574E+04  0.93656E+04  0.97882E+04  0.10361E+05
  0.11075E+05  0.11989E+05  0.13205E+05  0.14793E+05  0.16869E+05  0.19580E+05
  0.23105E+05  0.29569E+05  0.38930E+05  0.52556E+05  0.72623E+05  0.10252E+06
  0.14751E+06  0.15385E+05  0.15386E+05  0.15388E+05  0.15391E+05  0.15393E+05
  0.15396E+05  0.15400E+05  0.15405E+05  0.15410E+05  0.15415E+05  0.15420E+05
  0.15423E+05  0.15423E+05  0.15418E+05  0.15404E+05  0.15399E+05  0.15404E+05
  0.15410E+05  0.15433E+05  0.15483E+05  0.15546E+05  0.15655E+05  0.15787E+05
  0.15985E+05  0.16187E+05  0.16474E+05  0.16867E+05  0.17329E+05  0.17964E+05
  0.18822E+05  0.19893E+05  0.21264E+05  0.23087E+05  0.25466E+05  0.28581E+05
  0.32664E+05  0.38018E+05  0.47399E+05  0.60793E+05  0.80041E+05  0.10805E+06
  0.14931E+06  0.21078E+06  0.29378E+05  0.29380E+05  0.29383E+05  0.29386E+05
  0.29390E+05  0.29395E+05  0.29401E+05  0.29408E+05  0.29415E+05  0.29422E+05
  0.29429E+05  0.29433E+05  0.29432E+05  0.29422E+05  0.29398E+05  0.29387E+05
  0.29392E+05  0.29398E+05  0.29429E+05  0.29500E+05  0.29593E+05  0.29755E+05
  0.29952E+05  0.30248E+05  0.30549E+05  0.30977E+05  0.31567E+05  0.32259E+05
  0.33210E+05  0.34498E+05  0.36102E+05  0.38155E+05  0.40880E+05  0.44434E+05
  0.49083E+05  0.55180E+05  0.63193E+05  0.76763E+05  0.95868E+05  0.12296E+06
  0.16188E+06  0.21853E+06  0.30199E+06  0.56095E+05  0.56099E+05  0.56103E+05
  0.56108E+05  0.56114E+05  0.56121E+05  0.56130E+05  0.56140E+05  0.56150E+05
  0.56161E+05  0.56170E+05  0.56175E+05  0.56171E+05  0.56152E+05  0.56111E+05
  0.56089E+05  0.56091E+05  0.56094E+05  0.56135E+05  0.56239E+05  0.56374E+05
  0.56614E+05  0.56906E+05  0.57350E+05  0.57796E+05  0.58435E+05  0.59318E+05
  0.60352E+05  0.61778E+05  0.63708E+05  0.66111E+05  0.69184E+05  0.73257E+05
  0.78559E+05  0.85484E+05  0.94551E+05  0.10646E+06  0.12610E+06  0.15339E+06
  0.19157E+06  0.24570E+06  0.32348E+06  0.43669E+06  0.10713E+06  0.10713E+06
  0.10714E+06  0.10715E+06  0.10715E+06  0.10717E+06  0.10718E+06  0.10719E+06
  0.10721E+06  0.10722E+06  0.10724E+06  0.10724E+06  0.10723E+06  0.10720E+06
  0.10713E+06  0.10709E+06  0.10708E+06  0.10708E+06  0.10713E+06  0.10728E+06
  0.10747E+06  0.10783E+06  0.10826E+06  0.10892E+06  0.10958E+06  0.11054E+06
  0.11186E+06  0.11340E+06  0.11553E+06  0.11843E+06  0.12203E+06  0.12663E+06
  0.13271E+06  0.14063E+06  0.15094E+06  0.16441E+06  0.18207E+06  0.21059E+06
  0.24971E+06  0.30374E+06  0.37933E+06  0.48652E+06  0.64054E+06  0.20456E+06
  0.20457E+06  0.20458E+06  0.20459E+06  0.20460E+06  0.20462E+06  0.20464E+06
  0.20466E+06  0.20468E+06  0.20470E+06  0.20472E+06  0.20472E+06  0.20470E+06
  0.20464E+06  0.20452E+06  0.20445E+06  0.20443E+06  0.20440E+06  0.20447E+06
  0.20468E+06  0.20496E+06  0.20549E+06  0.20612E+06  0.20712E+06  0.20809E+06
  0.20950E+06  0.21148E+06  0.21378E+06  0.21697E+06  0.22131E+06  0.22669E+06
  0.23357E+06  0.24268E+06  0.25449E+06  0.26985E+06  0.28988E+06  0.31605E+06
  0.35765E+06  0.41403E+06  0.49094E+06  0.59715E+06  0.74577E+06  0.95652E+06
  0.48655E-10  0.83987E-09  0.26006E-08  0.69326E-08  0.12071E-07  0.32137E-07
  0.42184E-07  0.80674E-07  0.16335E-06  0.36023E-06  0.74732E-06  0.15597E-05
  0.56193E-05  0.29745E-04  0.17372E-03  0.46075E-03  0.17002E-02  0.40709E-02
  0.77953E-02  0.13873E-01  0.23117E-01  0.38168E-01  0.58109E-01  0.88887E-01
  0.13187E+00  0.19978E+00  0.30511E+00  0.46607E+00  0.70900E+00  0.10934E+01
  0.16649E+01  0.25778E+01  0.39706E+01  0.60605E+03  0.11571E+04  0.22094E+04
  0.42188E+04  0.80554E+04  0.15383E+05  0.29375E+05  0.56091E+05  0.10712E+06
  0.20455E+06  0.60526E-09  0.15447E-09  0.20390E-08  0.68114E-08  0.17332E-07
  0.30248E-07  0.78395E-07  0.10778E-06  0.21847E-06  0.48111E-06  0.98866E-06
  0.20309E-05  0.93845E-05  0.57639E-04  0.22214E-03  0.58752E-03  0.21641E-02
  0.51706E-02  0.98830E-02  0.17561E-01  0.29223E-01  0.48196E-01  0.73297E-01
  0.11200E+00  0.16598E+00  0.25118E+00  0.38316E+00  0.58449E+00  0.88778E+00
  0.13666E+01  0.20760E+01  0.32058E+01  0.49216E+01  0.60619E+03  0.11573E+04
  0.22097E+04  0.42193E+04  0.80561E+04  0.15384E+05  0.29377E+05  0.56094E+05
  0.10712E+06  0.20455E+06  0.21435E-08  0.13836E-08  0.40868E-09  0.56022E-08
  0.17202E-07  0.43672E-07  0.76044E-07  0.16492E-06  0.30110E-06  0.58102E-06
  0.13204E-05  0.24447E-05  0.14403E-04  0.99666E-04  0.41792E-03  0.75208E-03
  0.27629E-02  0.65839E-02  0.12555E-01  0.22266E-01  0.36993E-01  0.60929E-01
  0.92553E-01  0.14126E+00  0.20913E+00  0.31615E+00  0.48175E+00  0.73402E+00
  0.11134E+01  0.17111E+01  0.25946E+01  0.39975E+01  0.61205E+01  0.60635E+03
  0.11576E+04  0.22100E+04  0.42198E+04  0.80569E+04  0.15386E+05  0.29379E+05
  0.56096E+05  0.10713E+06  0.20456E+06  0.60628E-08  0.53833E-08  0.36606E-08
  0.12975E-08  0.13833E-07  0.42910E-07  0.10723E-06  0.19930E-06  0.41480E-06
  0.81507E-06  0.17273E-05  0.31546E-05  0.32767E-04  0.15565E-03  0.71119E-03
  0.12390E-02  0.35394E-02  0.84060E-02  0.15985E-01  0.28283E-01  0.46900E-01
  0.77124E-01  0.11699E+00  0.17835E+00  0.26375E+00  0.39829E+00  0.60631E+00
  0.92283E+00  0.13981E+01  0.21459E+01  0.32486E+01  0.49961E+01  0.76318E+01
  0.60655E+03  0.11579E+04  0.22105E+04  0.42205E+04  0.80579E+04  0.15387E+05
  0.29381E+05  0.56100E+05  0.10713E+06  0.20457E+06  0.11294E-07  0.15876E-07
  0.14511E-07  0.96847E-08  0.20594E-08  0.32939E-07  0.10527E-06  0.24378E-06
  0.63466E-06  0.11502E-05  0.27780E-05  0.81803E-05  0.61445E-04  0.29019E-03
  0.11011E-02  0.19517E-02  0.45634E-02  0.10765E-01  0.20400E-01  0.35996E-01
  0.59554E-01  0.97753E-01  0.14805E+00  0.22540E+00  0.33293E+00  0.50224E+00
  0.76374E+00  0.11613E+01  0.17576E+01  0.26945E+01  0.40737E+01  0.62551E+01
  0.95375E+01  0.60677E+03  0.11582E+04  0.22110E+04  0.42212E+04  0.80591E+04
  0.15389E+05  0.29384E+05  0.56104E+05  0.10714E+06  0.20458E+06  0.26653E-07
  0.28322E-07  0.40144E-07  0.35832E-07  0.24597E-07  0.49041E-08  0.82165E-07
  0.28098E-06  0.71789E-06  0.19432E-05  0.42789E-05  0.16743E-04  0.11160E-03
  0.48864E-03  0.14773E-02  0.28978E-02  0.59103E-02  0.12710E-01  0.26113E-01
  0.45921E-01  0.75770E-01  0.12410E+00  0.18760E+00  0.28517E+00  0.42067E+00
  0.63390E+00  0.96296E+00  0.14627E+01  0.22116E+01  0.33870E+01  0.51148E+01
  0.78434E+01  0.11941E+02  0.60705E+03  0.11586E+04  0.22116E+04  0.42221E+04
  0.80604E+04  0.15391E+05  0.29387E+05  0.56108E+05  0.10714E+06  0.20459E+06
  0.44152E-07  0.66415E-07  0.70871E-07  0.99129E-07  0.89383E-07  0.61009E-07
  0.12975E-07  0.21615E-06  0.98262E-06  0.23361E-05  0.82845E-05  0.28482E-04
  0.16406E-03  0.75040E-03  0.19325E-02  0.36696E-02  0.76883E-02  0.14951E-01
  0.29540E-01  0.58736E-01  0.96604E-01  0.15782E+00  0.23804E+00  0.36122E+00
  0.53205E+00  0.80073E+00  0.12151E+01  0.18439E+01  0.27852E+01  0.42614E+01
  0.64288E+01  0.98471E+01  0.14972E+02  0.60736E+03  0.11591E+04  0.22123E+04
  0.42231E+04  0.80619E+04  0.15393E+05  0.29390E+05  0.56112E+05  0.10715E+06
  0.20460E+06  0.76346E-07  0.10322E-06  0.14777E-06  0.17541E-06  0.21666E-06
  0.22133E-06  0.14772E-06  0.41201E-07  0.69331E-06  0.31846E-05  0.11767E-04
  0.65028E-04  0.24682E-03  0.99770E-03  0.23167E-02  0.45489E-02  0.90698E-02
  0.17885E-01  0.32931E-01  0.64624E-01  0.12344E+00  0.20107E+00  0.30249E+00
  0.45810E+00  0.67358E+00  0.10123E+01  0.15344E+01  0.23260E+01  0.35100E+01
  0.53656E+01  0.80870E+01  0.12375E+02  0.18794E+02  0.60771E+03  0.11596E+04
  0.22130E+04  0.42242E+04  0.80634E+04  0.15395E+05  0.29393E+05  0.56117E+05
  0.10716E+06  0.20460E+06  0.14745E-06  0.20043E-06  0.27557E-06  0.40856E-06
  0.55677E-06  0.62764E-06  0.73069E-06  0.41379E-06  0.13077E-06  0.20566E-05
  0.13828E-04  0.96058E-04  0.35557E-03  0.11988E-02  0.27363E-02  0.53225E-02
  0.10579E-01  0.20110E-01  0.37291E-01  0.69345E-01  0.13356E+00  0.25658E+00
  0.38486E+00  0.58155E+00  0.85343E+00  0.12807E+01  0.19387E+01  0.29358E+01
  0.44261E+01  0.67601E+01  0.10180E+02  0.15564E+02  0.23614E+02  0.60806E+03
  0.11601E+04  0.22137E+04  0.42252E+04  0.80649E+04  0.15397E+05  0.29396E+05
  0.56121E+05  0.10716E+06  0.20461E+06  0.32633E-06  0.42139E-06  0.52913E-06
  0.74836E-06  0.11721E-05  0.17539E-05  0.19848E-05  0.23592E-05  0.11160E-05
  0.31139E-06  0.90693E-05  0.10758E-03  0.46797E-03  0.13992E-02  0.31158E-02
  0.60114E-02  0.11749E-01  0.22458E-01  0.40361E-01  0.75264E-01  0.13993E+00
  0.27476E+00  0.49010E+00  0.73878E+00  0.10819E+01  0.16208E+01  0.24504E+01
  0.37067E+01  0.55829E+01  0.85201E+01  0.12820E+02  0.19586E+02  0.29691E+02
  0.60838E+03  0.11605E+04  0.22143E+04  0.42260E+04  0.80659E+04  0.15398E+05
  0.29397E+05  0.56122E+05  0.10716E+06  0.20461E+06  0.68926E-06  0.95665E-06
  0.12310E-05  0.14640E-05  0.22566E-05  0.38134E-05  0.60318E-05  0.80145E-05
  0.81304E-05  0.37518E-05  0.99281E-06  0.72922E-04  0.47435E-03  0.14968E-02
  0.33942E-02  0.65229E-02  0.12629E-01  0.23925E-01  0.43293E-01  0.78969E-01
  0.14744E+00  0.28330E+00  0.52028E+00  0.93813E+00  0.13708E+01  0.20504E+01
  0.30961E+01  0.46787E+01  0.70408E+01  0.10737E+02  0.16144E+02  0.24649E+02
  0.37343E+02  0.60854E+03  0.11607E+04  0.22145E+04  0.42261E+04  0.80657E+04
  0.15398E+05  0.29395E+05  0.56118E+05  0.10716E+06  0.20460E+06  0.14205E-05
  0.18109E-05  0.19676E-05  0.32452E-05  0.74517E-05  0.14350E-04  0.25509E-04
  0.56084E-04  0.69777E-04  0.70583E-04  0.38525E-04  0.14519E-04  0.35409E-03
  0.14273E-02  0.35549E-02  0.69462E-02  0.13310E-01  0.24873E-01  0.44892E-01
  0.82233E-01  0.15213E+00  0.29318E+00  0.53055E+00  0.99326E+00  0.17361E+01
  0.25928E+01  0.39106E+01  0.59038E+01  0.88770E+01  0.13529E+02  0.20329E+02
  0.31021E+02  0.46971E+02  0.60855E+03  0.11606E+04  0.22142E+04  0.42254E+04
  0.80642E+04  0.15395E+05  0.29390E+05  0.56108E+05  0.10714E+06  0.20456E+06
  0.42778E-05  0.66132E-05  0.10529E-04  0.22791E-04  0.42694E-04  0.75542E-04
  0.11442E-03  0.18206E-03  0.28191E-03  0.34732E-03  0.31402E-03  0.16143E-03
  0.18007E-03  0.12151E-02  0.34466E-02  0.70953E-02  0.14135E-01  0.25529E-01
  0.46662E-01  0.84072E-01  0.15609E+00  0.29902E+00  0.54171E+00  0.10099E+01
  0.18327E+01  0.32769E+01  0.49370E+01  0.74468E+01  0.11189E+02  0.17042E+02
  0.25594E+02  0.39039E+02  0.59086E+02  0.60837E+03  0.11602E+04  0.22133E+04
  0.42237E+04  0.80611E+04  0.15389E+05  0.29380E+05  0.56091E+05  0.10711E+06
  0.20451E+06  0.14080E-04  0.32097E-04  0.55958E-04  0.95964E-04  0.22158E-03
  0.39492E-03  0.62373E-03  0.80784E-03  0.95788E-03  0.10971E-02  0.11150E-02
  0.94893E-03  0.52794E-03  0.63490E-03  0.26775E-02  0.63437E-02  0.13587E-01
  0.25955E-01  0.46206E-01  0.84801E-01  0.15757E+00  0.29992E+00  0.54162E+00
  0.10199E+01  0.18450E+01  0.34326E+01  0.62010E+01  0.93537E+01  0.14053E+02
  0.21408E+02  0.32148E+02  0.49038E+02  0.74215E+02  0.60728E+03  0.11583E+04
  0.22101E+04  0.42183E+04  0.80519E+04  0.15374E+05  0.29354E+05  0.56048E+05
  0.10704E+06  0.20440E+06  0.17884E-03  0.24258E-03  0.44291E-03  0.70775E-03
  0.10463E-02  0.13721E-02  0.17399E-02  0.20786E-02  0.24363E-02  0.27463E-02
  0.29738E-02  0.29946E-02  0.25645E-02  0.14674E-02  0.67190E-03  0.41506E-02
  0.11024E-01  0.22944E-01  0.43314E-01  0.80495E-01  0.15223E+00  0.29444E+00
  0.53049E+00  0.10066E+01  0.18412E+01  0.34250E+01  0.64507E+01  0.11683E+02
  0.17569E+02  0.26791E+02  0.40256E+02  0.61445E+02  0.93027E+02  0.60504E+03
  0.11546E+04  0.22040E+04  0.42081E+04  0.80351E+04  0.15346E+05  0.29308E+05
  0.55973E+05  0.10691E+06  0.20420E+06  0.36260E-03  0.46260E-03  0.63191E-03
  0.11913E-02  0.19311E-02  0.28583E-02  0.35893E-02  0.44370E-02  0.52499E-02
  0.59153E-02  0.64236E-02  0.67751E-02  0.65888E-02  0.55333E-02  0.37941E-02
  0.53328E-03  0.60845E-02  0.17095E-01  0.36421E-01  0.72103E-01  0.14198E+00
  0.28250E+00  0.51275E+00  0.98244E+00  0.18086E+01  0.34098E+01  0.64275E+01
  0.12140E+02  0.21922E+02  0.33480E+02  0.50348E+02  0.76921E+02  0.11653E+03
  0.60236E+03  0.11502E+04  0.21966E+04  0.41958E+04  0.80149E+04  0.15313E+05
  0.29254E+05  0.55883E+05  0.10677E+06  0.20395E+06  0.17626E-02  0.22453E-02
  0.28697E-02  0.36948E-02  0.48928E-02  0.64711E-02  0.84270E-02  0.98321E-02
  0.11386E-01  0.12749E-01  0.13744E-01  0.14695E-01  0.15270E-01  0.14574E-01
  0.12955E-01  0.10850E-01  0.50792E-02  0.43412E-02  0.21423E-01  0.53956E-01
  0.11978E+00  0.25543E+00  0.47546E+00  0.93247E+00  0.17354E+01  0.33114E+01
  0.63460E+01  0.12018E+02  0.22659E+02  0.41613E+02  0.62696E+02  0.95962E+02
  0.14556E+03  0.59822E+03  0.11434E+04  0.21854E+04  0.41776E+04  0.79850E+04
  0.15264E+05  0.29174E+05  0.55753E+05  0.10656E+06  0.20361E+06  0.49818E-02
  0.63328E-02  0.80716E-02  0.10318E-01  0.13082E-01  0.15358E-01  0.18341E-01
  0.22012E-01  0.24614E-01  0.27382E-01  0.29477E-01  0.30710E-01  0.32317E-01
  0.32924E-01  0.32122E-01  0.30989E-01  0.26911E-01  0.20157E-01  0.68908E-02
  0.20402E-01  0.79532E-01  0.20704E+00  0.41143E+00  0.84907E+00  0.16182E+01
  0.31457E+01  0.61232E+01  0.11809E+02  0.22342E+02  0.42906E+02  0.77737E+02
  0.11931E+03  0.18133E+03  0.59277E+03  0.11345E+04  0.21710E+04  0.41541E+04
  0.79466E+04  0.15201E+05  0.29072E+05  0.55586E+05  0.10628E+06  0.20317E+06
  0.10559E-01  0.13396E-01  0.17032E-01  0.21707E-01  0.27748E-01  0.34954E-01
  0.38887E-01  0.44000E-01  0.50192E-01  0.54358E-01  0.58633E-01  0.61809E-01
  0.64625E-01  0.66296E-01  0.67638E-01  0.68781E-01  0.67465E-01  0.64939E-01
  0.57596E-01  0.38283E-01  0.10796E-01  0.12625E+00  0.30855E+00  0.71937E+00
  0.14431E+01  0.29072E+01  0.57912E+01  0.11362E+02  0.21904E+02  0.42274E+02
  0.80057E+02  0.14790E+03  0.22537E+03  0.58620E+03  0.11239E+04  0.21538E+04
  0.41261E+04  0.79010E+04  0.15127E+05  0.28950E+05  0.55389E+05  0.10596E+06
  0.20265E+06  0.20545E-01  0.26023E-01  0.33019E-01  0.41980E-01  0.53501E-01
  0.68374E-01  0.85739E-01  0.91813E-01  0.99566E-01  0.10885E+00  0.11460E+00
  0.12030E+00  0.12443E+00  0.12950E+00  0.13222E+00  0.13665E+00  0.13930E+00
  0.14280E+00  0.14377E+00  0.13544E+00  0.99841E-01  0.00000E+00  0.15417E+00
  0.53238E+00  0.12020E+01  0.25934E+01  0.53735E+01  0.10788E+02  0.21137E+02
  0.41595E+02  0.79043E+02  0.15269E+03  0.27985E+03  0.57931E+03  0.11128E+04
  0.21359E+04  0.40969E+04  0.78535E+04  0.15049E+05  0.28823E+05  0.55181E+05
  0.10562E+06  0.20209E+06  0.37862E-01  0.47888E-01  0.60661E-01  0.76969E-01
  0.97852E-01  0.12469E+00  0.15931E+00  0.19924E+00  0.20876E+00  0.22082E+00
  0.23497E+00  0.24431E+00  0.25426E+00  0.26389E+00  0.27135E+00  0.28289E+00
  0.29440E+00  0.31079E+00  0.32939E+00  0.34448E+00  0.33864E+00  0.27563E+00
  0.18136E+00  0.12236E+00  0.67608E+00  0.19081E+01  0.44598E+01  0.95335E+01
  0.19359E+02  0.39144E+02  0.76187E+02  0.14852E+03  0.28540E+03  0.56556E+03
  0.10912E+04  0.21015E+04  0.40419E+04  0.77651E+04  0.14907E+05  0.28594E+05
  0.54811E+05  0.10502E+06  0.20112E+06  0.66199E-01  0.83627E-01  0.10578E+00
  0.13399E+00  0.16999E+00  0.21610E+00  0.27531E+00  0.35162E+00  0.43888E+00
  0.45477E+00  0.47430E+00  0.49661E+00  0.51100E+00  0.52578E+00  0.54457E+00
  0.56779E+00  0.59390E+00  0.63130E+00  0.67834E+00  0.73086E+00  0.77239E+00
  0.76792E+00  0.76569E+00  0.57578E+00  0.19423E+00  0.80491E+00  0.30289E+01
  0.76240E+01  0.16727E+02  0.35456E+02  0.71014E+02  0.14243E+03  0.27641E+03
  0.54729E+03  0.10628E+04  0.20568E+04  0.39712E+04  0.76524E+04  0.14726E+05
  0.28304E+05  0.54344E+05  0.10427E+06  0.19991E+06  0.10797E+00  0.13624E+00
  0.17212E+00  0.21769E+00  0.27573E+00  0.34980E+00  0.44457E+00  0.56616E+00
  0.72249E+00  0.90034E+00  0.92408E+00  0.95201E+00  0.98169E+00  0.10006E+01
  0.10258E+01  0.10639E+01  0.11085E+01  0.11727E+01  0.12559E+01  0.13554E+01
  0.14547E+01  0.15191E+01  0.16253E+01  0.15627E+01  0.13710E+01  0.61666E+00
  0.12777E+01  0.54091E+01  0.13832E+02  0.31609E+02  0.65664E+02  0.13527E+03
  0.26877E+03  0.53087E+03  0.10377E+04  0.20179E+04  0.39100E+04  0.75552E+04
  0.14571E+05  0.28053E+05  0.53939E+05  0.10362E+06  0.19884E+06  0.17256E+00
  0.21752E+00  0.27447E+00  0.34672E+00  0.43853E+00  0.55537E+00  0.70442E+00
  0.89502E+00  0.11391E+01  0.14528E+01  0.18083E+01  0.18526E+01  0.19025E+01
  0.19558E+01  0.19987E+01  0.20634E+01  0.21412E+01  0.22530E+01  0.24000E+01
  0.25823E+01  0.27850E+01  0.29750E+01  0.32725E+01  0.34400E+01  0.35832E+01
  0.32645E+01  0.19578E+01  0.13521E+01  0.85866E+01  0.24700E+02  0.56197E+02
  0.12210E+03  0.25052E+03  0.50302E+03  0.99588E+03  0.19540E+04  0.38110E+04
  0.73999E+04  0.14325E+05  0.27662E+05  0.53313E+05  0.10261E+06  0.19722E+06
  0.27027E+00  0.34032E+00  0.42898E+00  0.54127E+00  0.68371E+00  0.86462E+00
  0.10949E+01  0.13884E+01  0.17630E+01  0.22428E+01  0.28575E+01  0.35511E+01
  0.36281E+01  0.37156E+01  0.38257E+01  0.39293E+01  0.40555E+01  0.42369E+01
  0.44771E+01  0.47802E+01  0.51323E+01  0.55025E+01  0.60719E+01  0.65619E+01
  0.71673E+01  0.74382E+01  0.69094E+01  0.46616E+01  0.10732E+01  0.15145E+02
  0.43566E+02  0.10513E+03  0.22692E+03  0.46933E+03  0.94658E+03  0.18803E+04
  0.36986E+04  0.72261E+04  0.14053E+05  0.27231E+05  0.52627E+05  0.10151E+06
  0.19546E+06  0.39931E+00  0.50225E+00  0.63242E+00  0.79713E+00  0.10057E+01
  0.12703E+01  0.16061E+01  0.20334E+01  0.25769E+01  0.32707E+01  0.41562E+01
  0.52869E+01  0.65517E+01  0.66731E+01  0.68358E+01  0.70586E+01  0.72379E+01
  0.74989E+01  0.78466E+01  0.82878E+01  0.88068E+01  0.93703E+01  0.10241E+02
  0.11066E+02  0.12152E+02  0.13003E+02  0.13196E+02  0.11882E+02  0.74001E+01
  0.51108E+01  0.31253E+02  0.89901E+02  0.20736E+03  0.44344E+03  0.91118E+03
  0.18302E+04  0.36255E+04  0.71163E+04  0.13883E+05  0.26965E+05  0.52202E+05
  0.10082E+06  0.19434E+06  0.59910E+00  0.75267E+00  0.94671E+00  0.11920E+01
  0.15024E+01  0.18954E+01  0.23936E+01  0.30260E+01  0.38290E+01  0.48509E+01
  0.61513E+01  0.78066E+01  0.99081E+01  0.12249E+02  0.12481E+02  0.12820E+02
  0.13224E+02  0.13608E+02  0.14122E+02  0.14778E+02  0.15557E+02  0.16426E+02
  0.17767E+02  0.19125E+02  0.20967E+02  0.22736E+02  0.24081E+02  0.24256E+02
  0.21764E+02  0.11747E+02  0.10817E+02  0.64873E+02  0.17565E+03  0.40213E+03
  0.85569E+03  0.17533E+04  0.35155E+04  0.69542E+04  0.13638E+05  0.26587E+05
  0.51607E+05  0.99876E+05  0.19281E+06  0.87760E+00  0.11011E+01  0.13834E+01
  0.17400E+01  0.21907E+01  0.27609E+01  0.34827E+01  0.43975E+01  0.55567E+01
  0.70287E+01  0.88971E+01  0.11269E+02  0.14272E+02  0.18072E+02  0.22342E+02
  0.22810E+02  0.23399E+02  0.24196E+02  0.24920E+02  0.25848E+02  0.26953E+02
  0.28194E+02  0.30130E+02  0.32138E+02  0.34912E+02  0.37781E+02  0.40465E+02
  0.42321E+02  0.42004E+02  0.34547E+02  0.15539E+02  0.34342E+02  0.13933E+03
  0.35803E+03  0.80071E+03  0.16826E+04  0.34214E+04  0.68240E+04  0.13451E+05
  0.26307E+05  0.51175E+05  0.99191E+05  0.19171E+06  0.12636E+01  0.15830E+01
  0.19862E+01  0.24953E+01  0.31383E+01  0.39511E+01  0.49787E+01  0.62796E+01
  0.79256E+01  0.10012E+02  0.12654E+02  0.16000E+02  0.20227E+02  0.25562E+02
  0.32364E+02  0.40070E+02  0.40853E+02  0.41985E+02  0.43436E+02  0.44697E+02
  0.46198E+02  0.47879E+02  0.50559E+02  0.53349E+02  0.57266E+02  0.61446E+02
  0.65687E+02  0.69445E+02  0.71519E+02  0.66678E+02  0.51185E+02  0.49332E+01
  0.95404E+02  0.30859E+03  0.74455E+03  0.16180E+04  0.33455E+04  0.67319E+04
  0.13334E+05  0.26148E+05  0.50945E+05  0.98836E+05  0.19113E+06  0.17535E+01
  0.21928E+01  0.27473E+01  0.34469E+01  0.43300E+01  0.54455E+01  0.68550E+01
  0.86367E+01  0.10889E+02  0.13738E+02  0.17341E+02  0.21894E+02  0.27631E+02
  0.34852E+02  0.44022E+02  0.55784E+02  0.68949E+02  0.70374E+02  0.72309E+02
  0.74699E+02  0.76561E+02  0.78609E+02  0.82031E+02  0.85515E+02  0.90523E+02
  0.95858E+02  0.10136E+03  0.10653E+03  0.11024E+03  0.10664E+03  0.92612E+02
  0.46427E+02  0.54817E+02  0.27140E+03  0.71485E+03  0.16023E+04  0.33542E+04
  0.67805E+04  0.13445E+05  0.26357E+05  0.51299E+05  0.99404E+05  0.19200E+06
  0.23936E+01  0.29870E+01  0.37356E+01  0.46798E+01  0.58711E+01  0.73752E+01
  0.92741E+01  0.11673E+02  0.14701E+02  0.18528E+02  0.23360E+02  0.29453E+02
  0.37118E+02  0.46742E+02  0.58921E+02  0.74469E+02  0.94198E+02  0.11652E+03
  0.11888E+03  0.12195E+03  0.12547E+03  0.12775E+03  0.13191E+03  0.13596E+03
  0.14201E+03  0.14833E+03  0.15479E+03  0.16090E+03  0.16552E+03  0.16186E+03
  0.14744E+03  0.98006E+02  0.92125E+01  0.23731E+03  0.70110E+03  0.16230E+04
  0.34313E+04  0.69478E+04  0.13755E+05  0.26886E+05  0.52166E+05  0.10078E+06
  0.19415E+06  0.31220E+01  0.38858E+01  0.48493E+01  0.60640E+01  0.75964E+01
  0.95297E+01  0.11969E+02  0.15049E+02  0.18933E+02  0.23836E+02  0.30018E+02
  0.37801E+02  0.47570E+02  0.59804E+02  0.75233E+02  0.94847E+02  0.11961E+03
  0.15133E+03  0.18698E+03  0.19033E+03  0.19430E+03  0.19840E+03  0.20279E+03
  0.20657E+03  0.21278E+03  0.21880E+03  0.22442E+03  0.22905E+03  0.23132E+03
  0.22276E+03  0.20138E+03  0.13869E+03  0.11113E+02  0.24992E+03  0.76623E+03
  0.17712E+04  0.37099E+04  0.74300E+04  0.14553E+05  0.28172E+05  0.54203E+05
  0.10397E+06  0.19910E+06  0.39940E+01  0.49555E+01  0.61681E+01  0.76969E+01
  0.96246E+01  0.12056E+02  0.15123E+02  0.18991E+02  0.23866E+02  0.30015E+02
  0.37755E+02  0.47491E+02  0.59683E+02  0.74918E+02  0.94072E+02  0.11833E+03
  0.14882E+03  0.18766E+03  0.23709E+03  0.29219E+03  0.29586E+03  0.29961E+03
  0.30687E+03  0.30921E+03  0.31443E+03  0.31848E+03  0.32101E+03  0.32121E+03
  0.31733E+03  0.29834E+03  0.26294E+03  0.17637E+03  0.13760E+02  0.30147E+03
  0.90141E+03  0.20355E+04  0.41733E+04  0.82000E+04  0.15795E+05  0.30138E+05
  0.57280E+05  0.10875E+06  0.20648E+06  0.51325E+03  0.51337E+03  0.51352E+03
  0.51369E+03  0.51390E+03  0.51413E+03  0.51440E+03  0.51469E+03  0.51495E+03
  0.51517E+03  0.51523E+03  0.51499E+03  0.51413E+03  0.51251E+03  0.51088E+03
  0.50990E+03  0.50864E+03  0.50839E+03  0.50886E+03  0.50976E+03  0.51029E+03
  0.50959E+03  0.51350E+03  0.51459E+03  0.51965E+03  0.52256E+03  0.52305E+03
  0.52031E+03  0.51254E+03  0.48572E+03  0.44062E+03  0.33513E+03  0.14497E+03
  0.21417E+03  0.88334E+03  0.21261E+04  0.44336E+04  0.87238E+04  0.16725E+05
  0.31694E+05  0.59792E+05  0.11272E+06  0.21266E+06  0.81456E+03  0.81470E+03
  0.81488E+03  0.81508E+03  0.81532E+03  0.81559E+03  0.81587E+03  0.81615E+03
  0.81634E+03  0.81640E+03  0.81616E+03  0.81534E+03  0.81342E+03  0.81017E+03
  0.80672E+03  0.80409E+03  0.80076E+03  0.79870E+03  0.79733E+03  0.79615E+03
  0.79378E+03  0.78876E+03  0.78995E+03  0.78575E+03  0.78633E+03  0.78219E+03
  0.77290E+03  0.75732E+03  0.73311E+03  0.68114E+03  0.60444E+03  0.44884E+03
  0.18929E+03  0.27235E+03  0.10938E+04  0.25646E+04  0.52158E+04  0.10025E+05
  0.18814E+05  0.34979E+05  0.64894E+05  0.12058E+06  0.22473E+06  0.12928E+04
  0.12930E+04  0.12932E+04  0.12934E+04  0.12937E+04  0.12940E+04  0.12943E+04
  0.12945E+04  0.12945E+04  0.12943E+04  0.12934E+04  0.12916E+04  0.12878E+04
  0.12818E+04  0.12753E+04  0.12698E+04  0.12628E+04  0.12574E+04  0.12527E+04
  0.12475E+04  0.12398E+04  0.12270E+04  0.12227E+04  0.12088E+04  0.12007E+04
  0.11836E+04  0.11570E+04  0.11191E+04  0.10671E+04  0.97430E+03  0.84764E+03
  0.61573E+03  0.25352E+03  0.35560E+03  0.13909E+04  0.31756E+04  0.62916E+04
  0.11794E+05  0.21621E+05  0.39347E+05  0.71619E+05  0.13087E+06  0.24041E+06
  0.20520E+04  0.20522E+04  0.20524E+04  0.20527E+04  0.20530E+04  0.20532E+04
  0.20535E+04  0.20535E+04  0.20532E+04  0.20524E+04  0.20505E+04  0.20468E+04
  0.20400E+04  0.20294E+04  0.20177E+04  0.20072E+04  0.19941E+04  0.19830E+04
  0.19721E+04  0.19599E+04  0.19426E+04  0.19163E+04  0.19020E+04  0.18710E+04
  0.18472E+04  0.18074E+04  0.17507E+04  0.16752E+04  0.15768E+04  0.14181E+04
  0.12125E+04  0.86347E+03  0.34777E+03  0.47626E+03  0.18161E+04  0.40383E+04
  0.77906E+04  0.14227E+05  0.25435E+05  0.45218E+05  0.80564E+05  0.14444E+06
  0.26093E+06  0.32568E+04  0.32570E+04  0.32573E+04  0.32576E+04  0.32579E+04
  0.32581E+04  0.32581E+04  0.32579E+04  0.32569E+04  0.32550E+04  0.32514E+04
  0.32447E+04  0.32328E+04  0.32146E+04  0.31943E+04  0.31756E+04  0.31521E+04
  0.31311E+04  0.31098E+04  0.30854E+04  0.30518E+04  0.30026E+04  0.29705E+04
  0.29104E+04  0.28590E+04  0.27803E+04  0.26731E+04  0.25348E+04  0.23602E+04
  0.20955E+04  0.17647E+04  0.12350E+04  0.48768E+03  0.65332E+03  0.24322E+04
  0.52724E+04  0.99067E+04  0.17616E+05  0.30681E+05  0.53193E+05  0.92582E+05
  0.16247E+06  0.28796E+06  0.51697E+04  0.51700E+04  0.51702E+04  0.51705E+04
  0.51707E+04  0.51708E+04  0.51706E+04  0.51697E+04  0.51676E+04  0.51639E+04
  0.51572E+04  0.51455E+04  0.51253E+04  0.50946E+04  0.50603E+04  0.50279E+04
  0.49874E+04  0.49500E+04  0.49110E+04  0.48660E+04  0.48048E+04  0.47175E+04
  0.46548E+04  0.45458E+04  0.44475E+04  0.43037E+04  0.41126E+04  0.38707E+04
  0.35717E+04  0.31368E+04  0.26078E+04  0.17977E+04  0.69759E+03  0.91621E+03
  0.33366E+04  0.70617E+04  0.12935E+05  0.22402E+05  0.37991E+05  0.64166E+05
  0.10892E+06  0.18671E+06  0.32394E+06  0.82058E+04  0.82061E+04  0.82064E+04
  0.82066E+04  0.82066E+04  0.82064E+04  0.82056E+04  0.82037E+04  0.81996E+04
  0.81929E+04  0.81811E+04  0.81612E+04  0.81273E+04  0.80765E+04  0.80193E+04
  0.79647E+04  0.78962E+04  0.78316E+04  0.77633E+04  0.76838E+04  0.75771E+04
  0.74269E+04  0.73129E+04  0.71229E+04  0.69463E+04  0.66946E+04  0.63655E+04
  0.59546E+04  0.54538E+04  0.47467E+04  0.39036E+04  0.26565E+04  0.10154E+04
  0.13105E+04  0.46791E+04  0.96873E+04  0.17324E+05  0.29249E+05  0.48312E+05
  0.79453E+05  0.13138E+06  0.21965E+06  0.37226E+06  0.13026E+05  0.13026E+05
  0.13026E+05  0.13026E+05  0.13026E+05  0.13025E+05  0.13023E+05  0.13020E+05
  0.13012E+05  0.13001E+05  0.12981E+05  0.12947E+05  0.12891E+05  0.12808E+05
  0.12714E+05  0.12623E+05  0.12509E+05  0.12400E+05  0.12283E+05  0.12147E+05
  0.11966E+05  0.11713E+05  0.11513E+05  0.11191E+05  0.10885E+05  0.10456E+05
  0.99023E+04  0.92172E+04  0.83904E+04  0.72483E+04  0.59072E+04  0.39766E+04
  0.15005E+04  0.19076E+04  0.66931E+04  0.13585E+05  0.23766E+05  0.39175E+05
  0.63080E+05  0.10104E+06  0.16269E+06  0.26496E+06  0.43794E+06  0.20675E+05
  0.20676E+05  0.20676E+05  0.20675E+05  0.20675E+05  0.20673E+05  0.20669E+05
  0.20662E+05  0.20650E+05  0.20629E+05  0.20596E+05  0.20541E+05  0.20449E+05
  0.20313E+05  0.20160E+05  0.20010E+05  0.19822E+05  0.19641E+05  0.19446E+05
  0.19218E+05  0.18914E+05  0.18495E+05  0.18156E+05  0.17617E+05  0.17100E+05
  0.16384E+05  0.15465E+05  0.14337E+05  0.12986E+05  0.11150E+05  0.90197E+04
  0.60173E+04  0.22460E+04  0.28188E+04  0.97419E+04  0.19432E+05  0.33327E+05
  0.53739E+05  0.84482E+05  0.13192E+06  0.20688E+06  0.32808E+06  0.52826E+06
  0.32819E+05  0.32819E+05  0.32819E+05  0.32818E+05  0.32816E+05  0.32812E+05
  0.32806E+05  0.32794E+05  0.32772E+05  0.32739E+05  0.32683E+05  0.32592E+05
  0.32444E+05  0.32224E+05  0.31975E+05  0.31730E+05  0.31425E+05  0.31127E+05
  0.30804E+05  0.30426E+05  0.29925E+05  0.29236E+05  0.28670E+05  0.27782E+05
  0.26921E+05  0.25739E+05  0.24233E+05  0.22392E+05  0.20201E+05  0.17259E+05
  0.13876E+05  0.91881E+04  0.33986E+04  0.42193E+04  0.14396E+05  0.28284E+05
  0.47671E+05  0.75361E+05  0.11589E+06  0.17668E+06  0.27011E+06  0.41721E+06
  0.65412E+06  0.44902E-09  0.15734E-08  0.42802E-08  0.10298E-07  0.23949E-07
  0.52075E-07  0.11434E-06  0.26004E-06  0.65572E-06  0.14501E-05  0.30243E-05
  0.10890E-04  0.77609E-04  0.35562E-03  0.12041E-02  0.22864E-02  0.49875E-02
  0.11377E-01  0.22619E-01  0.40137E-01  0.66705E-01  0.10988E+00  0.16689E+00
  0.25463E+00  0.37675E+00  0.56904E+00  0.86619E+00  0.13178E+01  0.19952E+01
  0.30591E+01  0.46246E+01  0.70986E+01  0.10818E+02  0.60631E+03  0.11575E+04
  0.22100E+04  0.42197E+04  0.80568E+04  0.15385E+05  0.29379E+05  0.56096E+05
  0.10713E+06  0.20456E+06  0.34926E-09  0.13636E-08  0.41628E-08  0.11551E-07
  0.26336E-07  0.60823E-07  0.13041E-06  0.29400E-06  0.86739E-06  0.20910E-05
  0.55358E-05  0.19361E-04  0.12233E-03  0.55409E-03  0.15557E-02  0.30825E-02
  0.64037E-02  0.13166E-01  0.27113E-01  0.50990E-01  0.84587E-01  0.13912E+00
  0.21105E+00  0.32167E+00  0.47551E+00  0.71766E+00  0.10915E+01  0.16593E+01
  0.25104E+01  0.38457E+01  0.58080E+01  0.89052E+01  0.13553E+02  0.60652E+03
  0.11579E+04  0.22104E+04  0.42204E+04  0.80579E+04  0.15387E+05  0.29381E+05
  0.56100E+05  0.10713E+06  0.20457E+06  0.12594E-09  0.92927E-09  0.34437E-08
  0.10894E-07  0.29120E-07  0.66315E-07  0.14374E-06  0.31313E-06  0.82665E-06
  0.28446E-05  0.95894E-05  0.39476E-04  0.17769E-03  0.77513E-03  0.18959E-02
  0.37589E-02  0.78568E-02  0.15484E-01  0.29785E-01  0.60381E-01  0.10745E+00
  0.17641E+00  0.26722E+00  0.40678E+00  0.60069E+00  0.90575E+00  0.13765E+01
  0.20910E+01  0.31608E+01  0.48386E+01  0.73014E+01  0.11184E+02  0.17002E+02
  0.60678E+03  0.11582E+04  0.22110E+04  0.42213E+04  0.80592E+04  0.15389E+05
  0.29384E+05  0.56105E+05  0.10714E+06  0.20458E+06  0.52125E-09  0.14254E-09
  0.28048E-08  0.11511E-07  0.33041E-07  0.89238E-07  0.18114E-06  0.34299E-06
  0.83709E-06  0.27023E-05  0.13238E-04  0.78257E-04  0.25371E-03  0.95669E-03
  0.22307E-02  0.44389E-02  0.90283E-02  0.17853E-01  0.33246E-01  0.64099E-01
  0.12640E+00  0.22411E+00  0.33885E+00  0.51504E+00  0.75962E+00  0.11442E+01
  0.17372E+01  0.26369E+01  0.39832E+01  0.60924E+01  0.91867E+01  0.14060E+02
  0.21352E+02  0.60711E+03  0.11587E+04  0.22118E+04  0.42225E+04  0.80609E+04
  0.15392E+05  0.29388E+05  0.56111E+05  0.10715E+06  0.20459E+06  0.13346E-08
  0.86152E-09  0.12182E-08  0.87545E-08  0.38243E-07  0.10935E-06  0.29999E-06
  0.52282E-06  0.86235E-06  0.22607E-05  0.13557E-04  0.10460E-03  0.37942E-03
  0.11363E-02  0.25681E-02  0.50765E-02  0.10136E-01  0.19734E-01  0.36714E-01
  0.68899E-01  0.13154E+00  0.26264E+00  0.43047E+00  0.65311E+00  0.96182E+00
  0.14470E+01  0.21946E+01  0.33282E+01  0.50233E+01  0.76778E+01  0.11568E+02
  0.17690E+02  0.26843E+02  0.60752E+03  0.11594E+04  0.22127E+04  0.42239E+04
  0.80631E+04  0.15395E+05  0.29393E+05  0.56118E+05  0.10716E+06  0.20461E+06
  0.28542E-08  0.28868E-08  0.11498E-08  0.62051E-08  0.30806E-07  0.12047E-06
  0.36947E-06  0.10025E-05  0.18988E-05  0.24012E-05  0.95787E-05  0.10507E-03
  0.46812E-03  0.13113E-02  0.28876E-02  0.56172E-02  0.11096E-01  0.21405E-01
  0.39311E-01  0.73660E-01  0.13816E+00  0.27028E+00  0.50337E+00  0.82968E+00
  0.12196E+01  0.18320E+01  0.27752E+01  0.42043E+01  0.63398E+01  0.96819E+01
  0.14577E+02  0.22275E+02  0.33774E+02  0.60803E+03  0.11601E+04  0.22139E+04
  0.42257E+04  0.80658E+04  0.15399E+05  0.29399E+05  0.56127E+05  0.10717E+06
  0.20463E+06  0.41814E-08  0.40385E-08  0.24307E-08  0.59844E-08  0.49643E-07
  0.17386E-06  0.83420E-06  0.29797E-05  0.75611E-05  0.13781E-04  0.13768E-04
  0.89761E-04  0.49242E-03  0.14440E-02  0.32264E-02  0.61799E-02  0.11918E-01
  0.22778E-01  0.41644E-01  0.77143E-01  0.14497E+00  0.28018E+00  0.51474E+00
  0.97034E+00  0.15495E+01  0.23233E+01  0.35141E+01  0.53170E+01  0.80092E+01
  0.12221E+02  0.18383E+02  0.28070E+02  0.42529E+02  0.60870E+03  0.11611E+04
  0.22154E+04  0.42280E+04  0.80693E+04  0.15404E+05  0.29407E+05  0.56139E+05
  0.10719E+06  0.20466E+06  0.53165E-08  0.55465E-08  0.43398E-08  0.54945E-08
  0.72393E-07  0.35178E-06  0.15539E-05  0.58010E-05  0.20763E-04  0.49408E-04
  0.92523E-04  0.16018E-03  0.51374E-03  0.15408E-02  0.35508E-02  0.68450E-02
  0.13185E-01  0.24004E-01  0.44045E-01  0.80679E-01  0.15044E+00  0.29061E+00
  0.52936E+00  0.99233E+00  0.18123E+01  0.29519E+01  0.44567E+01  0.67330E+01
  0.10129E+02  0.15438E+02  0.23203E+02  0.35400E+02  0.53594E+02  0.60955E+03
  0.11624E+04  0.22174E+04  0.42309E+04  0.80737E+04  0.15411E+05  0.29417E+05
  0.56155E+05  0.10722E+06  0.20469E+06  0.17035E-07  0.27174E-07  0.28541E-07
  0.13655E-07  0.38023E-06  0.17541E-05  0.54124E-05  0.13943E-04  0.34686E-04
  0.82128E-04  0.17266E-03  0.33953E-03  0.73182E-03  0.18271E-02  0.39068E-02
  0.75147E-02  0.14468E-01  0.26644E-01  0.46904E-01  0.84976E-01  0.15753E+00
  0.29963E+00  0.54514E+00  0.10205E+01  0.18533E+01  0.34525E+01  0.56622E+01
  0.85385E+01  0.12826E+02  0.19524E+02  0.29312E+02  0.44681E+02  0.67588E+02
  0.61061E+03  0.11640E+04  0.22198E+04  0.42346E+04  0.80794E+04  0.15419E+05
  0.29430E+05  0.56174E+05  0.10725E+06  0.20474E+06  0.13888E-06  0.19804E-06
  0.25647E-06  0.14079E-06  0.64376E-06  0.32795E-05  0.98150E-05  0.24738E-04
  0.57252E-04  0.12254E-03  0.25715E-03  0.51933E-03  0.10513E-02  0.25013E-02
  0.48619E-02  0.83984E-02  0.15853E-01  0.28790E-01  0.50687E-01  0.90456E-01
  0.16562E+00  0.31116E+00  0.55971E+00  0.10507E+01  0.19056E+01  0.35302E+01
  0.66220E+01  0.10848E+02  0.16265E+02  0.24722E+02  0.37070E+02  0.56446E+02
  0.85306E+02  0.61195E+03  0.11661E+04  0.22229E+04  0.42392E+04  0.80863E+04
  0.15430E+05  0.29446E+05  0.56199E+05  0.10728E+06  0.20479E+06  0.27228E-06
  0.32805E-06  0.60148E-06  0.90568E-06  0.59529E-06  0.22851E-05  0.11032E-04
  0.31003E-04  0.75230E-04  0.16092E-03  0.33189E-03  0.67937E-03  0.13859E-02
  0.28172E-02  0.57688E-02  0.10145E-01  0.17624E-01  0.31450E-01  0.54595E-01
  0.96052E-01  0.17394E+00  0.32500E+00  0.57797E+00  0.10782E+01  0.19612E+01
  0.36285E+01  0.67691E+01  0.12683E+02  0.20659E+02  0.31345E+02  0.46932E+02
  0.71376E+02  0.10776E+03  0.61358E+03  0.11685E+04  0.22266E+04  0.42448E+04
  0.80948E+04  0.15443E+05  0.29466E+05  0.56228E+05  0.10733E+06  0.20486E+06
  0.20755E-04  0.27153E-04  0.35802E-04  0.51025E-04  0.75331E-04  0.10857E-03
  0.14080E-03  0.16824E-03  0.17961E-03  0.15860E-03  0.59646E-04  0.25384E-03
  0.10180E-02  0.25709E-02  0.52805E-02  0.99537E-02  0.18095E-01  0.31544E-01
  0.54772E-01  0.96283E-01  0.17432E+00  0.32584E+00  0.57803E+00  0.10778E+01
  0.19579E+01  0.36499E+01  0.68272E+01  0.12764E+02  0.23843E+02  0.39390E+02
  0.58974E+02  0.89700E+02  0.13543E+03  0.61252E+03  0.11667E+04  0.22235E+04
  0.42396E+04  0.80859E+04  0.15428E+05  0.29441E+05  0.56187E+05  0.10726E+06
  0.20475E+06  0.12629E-03  0.16331E-03  0.21239E-03  0.27766E-03  0.36523E-03
  0.44947E-03  0.52868E-03  0.62684E-03  0.70042E-03  0.72568E-03  0.62930E-03
  0.28811E-03  0.75378E-03  0.31177E-02  0.69014E-02  0.12589E-01  0.22605E-01
  0.38438E-01  0.64944E-01  0.11122E+00  0.19676E+00  0.36056E+00  0.62735E+00
  0.11521E+01  0.20649E+01  0.38085E+01  0.71198E+01  0.13362E+02  0.24834E+02
  0.46744E+02  0.87063E+02  0.14364E+03  0.21633E+03  0.61633E+03  0.11723E+04
  0.22317E+04  0.42517E+04  0.81037E+04  0.15454E+05  0.29479E+05  0.56241E+05
  0.10734E+06  0.20486E+06  0.29880E-03  0.38458E-03  0.49747E-03  0.64670E-03
  0.84571E-03  0.11120E-02  0.13439E-02  0.14976E-02  0.16711E-02  0.17938E-02
  0.17705E-02  0.14536E-02  0.52124E-03  0.20946E-02  0.65316E-02  0.12956E-01
  0.24118E-01  0.41307E-01  0.69614E-01  0.11849E+00  0.20822E+00  0.37909E+00
  0.65345E+00  0.11919E+01  0.21213E+01  0.38916E+01  0.72434E+01  0.13545E+02
  0.25301E+02  0.47677E+02  0.88424E+02  0.16718E+03  0.27702E+03  0.61800E+03
  0.11747E+04  0.22350E+04  0.42561E+04  0.81096E+04  0.15462E+05  0.29488E+05
  0.56253E+05  0.10735E+06  0.20487E+06  0.54437E-03  0.69761E-03  0.89785E-03
  0.11606E-02  0.15080E-02  0.19695E-02  0.25839E-02  0.31097E-02  0.33479E-02
  0.35971E-02  0.37036E-02  0.34381E-02  0.24247E-02  0.00000E+00  0.54212E-02
  0.12955E-01  0.25814E-01  0.45006E-01  0.75975E-01  0.12869E+00  0.22459E+00
  0.40581E+00  0.69164E+00  0.12506E+01  0.22058E+01  0.40173E+01  0.74322E+01
  0.13827E+02  0.25717E+02  0.48656E+02  0.90368E+02  0.17009E+03  0.31883E+03
  0.62090E+03  0.11789E+04  0.22411E+04  0.42649E+04  0.81221E+04  0.15479E+05
  0.29513E+05  0.56287E+05  0.10740E+06  0.20494E+06  0.89086E-03  0.11375E-02
  0.14578E-02  0.18751E-02  0.24225E-02  0.31438E-02  0.40969E-02  0.53536E-02
  0.64283E-02  0.67546E-02  0.69786E-02  0.67976E-02  0.56131E-02  0.27689E-02
  0.28179E-02  0.12031E-01  0.27406E-01  0.49536E-01  0.84378E-01  0.14265E+00
  0.24745E+00  0.44341E+00  0.74588E+00  0.13342E+01  0.23271E+01  0.41988E+01
  0.77061E+01  0.14238E+02  0.26329E+02  0.49581E+02  0.92339E+02  0.17415E+03
  0.32486E+03  0.62539E+03  0.11855E+04  0.22508E+04  0.42792E+04  0.81430E+04
  0.15510E+05  0.29557E+05  0.56351E+05  0.10749E+06  0.20507E+06  0.14358E-02
  0.18278E-02  0.23339E-02  0.29896E-02  0.38438E-02  0.49613E-02  0.64273E-02
  0.83490E-02  0.10836E-01  0.13028E-01  0.13309E-01  0.13142E-01  0.11782E-01
  0.82726E-02  0.26501E-02  0.75911E-02  0.26483E-01  0.52594E-01  0.92590E-01
  0.15820E+00  0.27472E+00  0.49016E+00  0.81420E+00  0.14410E+01  0.24829E+01
  0.44331E+01  0.80611E+01  0.14773E+02  0.27126E+02  0.50789E+02  0.94123E+02
  0.17789E+03  0.33275E+03  0.63131E+03  0.11943E+04  0.22638E+04  0.42983E+04
  0.81710E+04  0.15551E+05  0.29617E+05  0.56438E+05  0.10762E+06  0.20525E+06
  0.21094E-02  0.26778E-02  0.34083E-02  0.43499E-02  0.55687E-02  0.71521E-02
  0.92142E-02  0.11899E-01  0.15358E-01  0.19787E-01  0.23724E-01  0.23574E-01
  0.21955E-01  0.17680E-01  0.10759E-01  0.14046E-02  0.22086E-01  0.54152E-01
  0.10174E+00  0.17800E+00  0.31135E+00  0.55444E+00  0.90908E+00  0.15900E+01
  0.27011E+01  0.47619E+01  0.85600E+01  0.15526E+02  0.28250E+02  0.52496E+02
  0.96654E+02  0.18172E+03  0.34023E+03  0.63985E+03  0.12070E+04  0.22827E+04
  0.43264E+04  0.82128E+04  0.15613E+05  0.29709E+05  0.56573E+05  0.10781E+06
  0.20554E+06  0.28818E-02  0.36493E-02  0.46317E-02  0.58917E-02  0.75141E-02
  0.96075E-02  0.12314E-01  0.15809E-01  0.20277E-01  0.25955E-01  0.32897E-01
  0.38794E-01  0.36348E-01  0.30478E-01  0.21473E-01  0.94974E-02  0.17486E-01
  0.59507E-01  0.11963E+00  0.21321E+00  0.37320E+00  0.65895E+00  0.10615E+01
  0.18248E+01  0.30424E+01  0.52716E+01  0.93268E+01  0.16678E+02  0.29966E+02
  0.55095E+02  0.10052E+03  0.18757E+03  0.34901E+03  0.65302E+03  0.12267E+04
  0.23124E+04  0.43709E+04  0.82796E+04  0.15713E+05  0.29859E+05  0.56799E+05
  0.10815E+06  0.20605E+06  0.39918E-02  0.50436E-02  0.63857E-02  0.81003E-02
  0.10298E-01  0.13120E-01  0.16746E-01  0.21398E-01  0.27311E-01  0.34785E-01
  0.43912E-01  0.54326E-01  0.61840E-01  0.53497E-01  0.41422E-01  0.26222E-01
  0.00000E+00  0.56604E-01  0.13468E+00  0.25257E+00  0.44954E+00  0.79394E+00
  0.12604E+01  0.21340E+01  0.34917E+01  0.59418E+01  0.10333E+02  0.18184E+02
  0.32203E+02  0.58474E+02  0.10553E+03  0.19514E+03  0.36034E+03  0.67000E+03
  0.12522E+04  0.23505E+04  0.44282E+04  0.83656E+04  0.15842E+05  0.30052E+05
  0.57088E+05  0.10859E+06  0.20670E+06  0.54709E-02  0.68978E-02  0.87138E-02
  0.11027E-01  0.13980E-01  0.17755E-01  0.22582E-01  0.28742E-01  0.36531E-01
  0.46325E-01  0.58262E-01  0.71963E-01  0.85357E-01  0.91983E-01  0.74966E-01
  0.54705E-01  0.20804E-01  0.41288E-01  0.14659E+00  0.30068E+00  0.55176E+00
  0.98066E+00  0.15374E+01  0.25653E+01  0.41164E+01  0.68692E+01  0.11718E+02
  0.20244E+02  0.35249E+02  0.63051E+02  0.11229E+03  0.20533E+03  0.37555E+03
  0.69277E+03  0.12863E+04  0.24017E+04  0.45050E+04  0.84808E+04  0.16015E+05
  0.30312E+05  0.57479E+05  0.10917E+06  0.20758E+06  0.74199E-02  0.93348E-02
  0.11766E-01  0.14855E-01  0.18785E-01  0.23789E-01  0.30158E-01  0.38246E-01
  0.48412E-01  0.61119E-01  0.76529E-01  0.94201E-01  0.11173E+00  0.12438E+00
  0.12833E+00  0.99173E-01  0.52548E-01  0.12283E-01  0.16057E+00  0.37077E+00
  0.70411E+00  0.12590E+01  0.19481E+01  0.31988E+01  0.50256E+01  0.82053E+01
  0.13692E+02  0.23155E+02  0.39515E+02  0.69414E+02  0.12164E+03  0.21934E+03
  0.39639E+03  0.72387E+03  0.13328E+04  0.24714E+04  0.46096E+04  0.86380E+04
  0.16251E+05  0.30668E+05  0.58014E+05  0.10998E+06  0.20879E+06  0.99275E-02
  0.12462E-01  0.15674E-01  0.19745E-01  0.24914E-01  0.31474E-01  0.39795E-01
  0.50314E-01  0.63485E-01  0.79869E-01  0.99669E-01  0.12236E+00  0.14516E+00
  0.16270E+00  0.17281E+00  0.17347E+00  0.10784E+00  0.27846E-01  0.15936E+00
  0.45535E+00  0.91234E+00  0.16536E+01  0.25336E+01  0.41025E+01  0.63156E+01
  0.10087E+02  0.16449E+02  0.27183E+02  0.45367E+02  0.78070E+02  0.13426E+03
  0.23813E+03  0.42420E+03  0.76519E+03  0.13944E+04  0.25634E+04  0.47474E+04
  0.88447E+04  0.16562E+05  0.31135E+05  0.58717E+05  0.11104E+06  0.21039E+06
  0.13157E-01  0.16475E-01  0.20675E-01  0.25989E-01  0.32720E-01  0.41240E-01
  0.52012E-01  0.65584E-01  0.82501E-01  0.10345E+00  0.12865E+00  0.15743E+00
  0.18643E+00  0.20935E+00  0.22405E+00  0.22893E+00  0.19061E+00  0.79600E-01
  0.14881E+00  0.58114E+00  0.12299E+01  0.22544E+01  0.34191E+01  0.54556E+01
  0.82258E+01  0.12840E+02  0.20432E+02  0.32930E+02  0.53619E+02  0.90142E+02
  0.15169E+03  0.26386E+03  0.46200E+03  0.82103E+03  0.14772E+04  0.26866E+04
  0.49314E+04  0.91202E+04  0.16975E+05  0.31756E+05  0.59652E+05  0.11244E+06
  0.21251E+06  0.17178E-01  0.21452E-01  0.26854E-01  0.33679E-01  0.42308E-01
  0.53208E-01  0.66949E-01  0.84206E-01  0.10564E+00  0.13207E+00  0.16368E+00
